ply
format ascii 1.0
comment PCL generated
element vertex 1348
property float x
property float y
property float z
element camera 0
property float view_px
property float view_py
property float view_pz
property float x_axisx
property float x_axisy
property float x_axisz
property float y_axisx
property float y_axisy
property float y_axisz
property float z_axisx
property float z_axisy
property float z_axisz
property float focal
property float scalex
property float scaley
property float centerx
property float centery
property int viewportx
property int viewporty
property float k1
property float k2
end_header
-0.085237414 -0.075017773 0.31881836
-0.076212242 -0.074570887 0.31876722
-0.066451862 -0.07108815 0.31870002
-0.016103854 -0.070407495 0.31900001
0.098260485 -0.071489558 0.31842858
0.10494692 -0.07118886 0.31847998
0.11510281 -0.071209915 0.31849992
0.12484595 -0.071232818 0.31852183
0.13321358 -0.070905805 0.31900007
-0.10251158 -0.06395267 0.31313044
-0.094927043 -0.064999074 0.31443399
-0.084948376 -0.064995192 0.31453374
-0.074684799 -0.064867109 0.31497958
-0.065053679 -0.064986579 0.31708607
-0.055205949 -0.064632237 0.31735954
-0.045040656 -0.064323075 0.31695101
-0.035212036 -0.064154826 0.3172524
-0.025086178 -0.063979708 0.31745473
-0.018011427 -0.06430155 0.31744191
0.096977897 -0.06373626 0.3157016
0.10474854 -0.065251075 0.3164573
0.11507283 -0.065345265 0.31643522
0.12515382 -0.065399371 0.31646597
0.13490973 -0.065085791 0.31664187
0.14499028 -0.064937331 0.31684577
0.15479542 -0.064579777 0.31713036
0.1648877 -0.064075783 0.31748649
0.17491429 -0.063955262 0.31744459
0.18492384 -0.063897535 0.31741837
0.19267933 -0.063950717 0.31735006
-0.1032381 -0.056497127 0.31054696
-0.094922811 -0.056575004 0.31064379
-0.084818184 -0.056446929 0.31060597
-0.074409939 -0.055109531 0.31300625
-0.066270329 -0.057207618 0.31775337
-0.053864788 -0.056787491 0.31760764
-0.044882894 -0.054997366 0.31363335
-0.034951773 -0.054845333 0.31308094
-0.025032273 -0.05496648 0.31330287
-0.017434442 -0.054825794 0.31345707
0.0963329 -0.05472206 0.31452474
0.10478847 -0.05499614 0.3128323
0.11491154 -0.055176567 0.31216663
0.12493521 -0.055188224 0.31217116
0.13502698 -0.055140298 0.31215069
0.14488316 -0.055028047 0.31212503
0.15497367 -0.054780219 0.31232575
0.16506493 -0.054861959 0.31287971
0.17499033 -0.054842543 0.31286657
0.18495901 -0.054905772 0.31291777
0.19248742 -0.05582286 0.3135806
-0.074568458 -0.045359276 0.31376937
-0.051199123 -0.047511272 0.31620005
-0.04630544 -0.047708895 0.31146348
-0.034858182 -0.049131699 0.30999997
-0.024348568 -0.048935238 0.31048387
-0.018212222 -0.048936944 0.31092307
0.096053444 -0.047450569 0.31195831
0.10169527 -0.048165537 0.31134778
-0.07419908 -0.034998275 0.31410676
-0.05426712 -0.032095734 0.31485188
-0.073329687 -0.024575846 0.31467009
-0.065251149 -0.022287445 0.31850013
-0.055331245 -0.02455499 0.31649196
-0.049385745 -0.020480124 0.31
-0.073031574 -0.01494662 0.3142522
-0.064909972 -0.014712699 0.31665555
-0.055857256 -0.015256863 0.31591901
-0.049385745 -0.019269492 0.31
-0.07219018 -0.0070510553 0.31107503
-0.065170035 -0.0069195055 0.31149381
-0.058712739 -0.0074924515 0.31194732
-0.22078443 0.016676197 0.3168
-0.21534963 0.017073309 0.31751621
-0.20503515 0.017046005 0.31787086
-0.1954034 0.017532686 0.31813353
-0.18504752 0.01793557 0.31860018
-0.17509378 0.017935568 0.31860024
-0.16514009 0.01793558 0.31860009
-0.15501934 0.017974589 0.31858087
-0.14490144 0.017935582 0.31860003
-0.13665551 0.017871197 0.31858978
0.016287975 0.011190075 0.31532004
0.025057051 0.011690556 0.31492504
0.03520789 0.012630388 0.31412283
0.044032354 0.013365407 0.31460533
-0.21347107 0.024650767 0.31297311
-0.20519711 0.025018262 0.31346634
-0.19503838 0.025152313 0.31394735
-0.18496197 0.025037203 0.31470358
-0.17486534 0.025102412 0.31476223
-0.16496223 0.025096977 0.315
-0.15499455 0.025156859 0.31497478
-0.14502655 0.025077142 0.31501272
-0.13557744 0.025468597 0.31477693
-0.12890874 0.02903042 0.31299999
-0.021692822 0.029094363 0.31816667
-0.018429304 0.029586913 0.31900001
-0.21326213 0.031708553 0.3104167
-0.20517588 0.032057427 0.31076935
-0.19480765 0.032181457 0.31076908
-0.18497828 0.032824002 0.31082559
-0.17502409 0.032865189 0.31086051
-0.16511454 0.032860305 0.31117034
-0.15506123 0.032935806 0.31127596
-0.14504743 0.032927226 0.31127918
-0.13551536 0.032801375 0.31135908
-0.12972361 0.030660214 0.31300002
-0.022619773 0.035338625 0.31385529
-0.015021187 0.035116825 0.31680164
-0.0049181711 0.035214793 0.31794026
0.005153378 0.035759412 0.31798327
0.015159018 0.036112264 0.3180002
0.024954796 0.036368527 0.31792009
0.034855329 0.036711577 0.31792223
0.044971187 0.036947094 0.31804776
0.054923601 0.036957901 0.31814283
0.064982384 0.037002906 0.31811646
0.075038277 0.036957905 0.31814283
0.084977731 0.036957908 0.31814286
0.095310725 0.036398996 0.31821454
0.1014225 0.037272524 0.31743476
-0.022446012 0.042553168 0.31207323
-0.014847615 0.044807713 0.31232873
-0.0050079762 0.044861957 0.31252491
0.0051418683 0.044897296 0.31297031
0.014939154 0.044956714 0.31336299
0.024930019 0.045103725 0.31360927
0.034982953 0.04503011 0.31388849
0.04491242 0.04501861 0.31394145
0.055010226 0.045034166 0.31392047
0.065081686 0.045047235 0.31392348
0.075007275 0.045043543 0.31393012
0.084984683 0.045106024 0.31387159
0.094839737 0.044874173 0.31374875
0.10096252 0.044281479 0.31367645
0.24982813 0.049519356 0.31900001
0.25571901 0.048341174 0.31900018
0.26228589 0.048273586 0.3190001
0.0083209649 0.050543517 0.31
0.015264696 0.051155794 0.31000003
0.024866242 0.051350601 0.31000012
0.034954831 0.051350586 0.31000009
0.04504342 0.051350612 0.31000012
0.055132002 0.051350601 0.31000009
0.064817041 0.051350605 0.31000009
0.074905626 0.051350594 0.31000012
0.084615119 0.051301692 0.31000006
0.21614581 0.059421472 0.30999997
0.22675349 0.057225727 0.31548145
0.23518221 0.056467518 0.3161779
0.24519885 0.05550104 0.31634134
0.25513127 0.055193979 0.31627104
0.261529 0.05311878 0.31702626
0.21614581 0.06224627 0.31000018
0.22511946 0.062492266 0.31062496
0.23505762 0.062442321 0.31099999
0.24477394 0.062442329 0.3109999
0.25373685 0.062320348 0.3111333
-0.071806893 -0.081542119 0.32000005
-0.065684281 -0.081514597 0.32100007
-0.054898903 -0.080961175 0.32100007
-0.045730501 -0.080789126 0.32100004
-0.036930803 -0.080543339 0.32100001
0.097760268 -0.081657648 0.32100004
0.10508525 -0.082718529 0.32099977
0.11475334 -0.083050497 0.32099968
0.12459213 -0.082822569 0.32099974
0.13458283 -0.082442686 0.32099983
0.14460067 -0.082095399 0.32099995
0.15486817 -0.081796944 0.32100007
0.1641016 -0.081325121 0.32100007
0.17450772 -0.080543339 0.32100004
-0.071739338 -0.076779813 0.31999996
-0.064576931 -0.075857304 0.3208496
-0.054870397 -0.075074233 0.32083288
-0.044846904 -0.07507436 0.32083288
-0.034823403 -0.075074293 0.32083288
-0.024897467 -0.074801795 0.32082304
-0.018478056 -0.074238606 0.32077423
0.098049209 -0.076858118 0.32079419
0.10483729 -0.076313868 0.32077745
0.11485901 -0.076313883 0.32077745
0.12488082 -0.076313876 0.32077733
0.13517846 -0.075792871 0.32074958
0.14490308 -0.075074285 0.32083285
0.15492663 -0.07507427 0.32083288
0.16493313 -0.075157508 0.32094315
0.17492561 -0.075111143 0.32099947
0.18485597 -0.074840724 0.32099947
0.19370571 -0.073582396 0.32075825
0.20062399 -0.071961209 0.32000002
-0.051811956 -0.069461845 0.32000002
-0.044730414 -0.069461837 0.31999999
-0.033899829 -0.069184124 0.32000005
-0.024735495 -0.069045275 0.32000008
-0.018487079 -0.069045283 0.32000002
0.15813477 -0.069461845 0.32000002
0.16575187 -0.069104776 0.32000005
0.17521375 -0.069045268 0.32000008
0.18521123 -0.069045275 0.32000008
0.19354245 -0.069045275 0.32000002
-0.070140637 -0.050300039 0.32000002
-0.0644463 -0.053442903 0.32355133
-0.05689225 -0.053594764 0.32283577
-0.071471862 -0.044676952 0.32275936
-0.065350354 -0.045090362 0.32678214
-0.056037299 -0.044626437 0.32617253
-0.071605146 -0.035108004 0.32274577
-0.065198779 -0.035203852 0.32599998
-0.057067297 -0.036381662 0.3247636
-0.071246482 -0.028051617 0.32100004
-0.064994596 -0.027506908 0.32131937
-0.059310053 -0.029471993 0.32000002
-0.23126097 -0.011114096 0.32900003
-0.22886263 -0.011028442 0.32900003
-0.23147897 -0.0060900603 0.32832262
-0.22550313 -0.0038812265 0.32850423
-0.21477978 -0.0033188863 0.3287501
-0.20493698 -0.0033188874 0.32875034
-0.19509403 -0.0033188902 0.32875013
-0.18482322 -0.0033188874 0.32875001
-0.17487185 -0.0032617457 0.32873356
-0.16503191 -0.0033735977 0.32876617
-0.15486662 -0.0033188888 0.32875007
-0.1449168 -0.0032617473 0.32873356
-0.13506535 -0.0033735775 0.32874489
-0.12884489 -0.003852221 0.32868752
-0.23040517 0.0013803064 0.32633331
-0.22402149 0.0051308637 0.32483923
-0.2149208 0.0051722336 0.32508358
-0.20486897 0.0051810187 0.32508528
-0.19498579 0.0051206127 0.32508656
-0.18504119 0.0052310177 0.32497224
-0.17503507 0.0052075749 0.32500032
-0.16498685 0.005174187 0.32508346
-0.15500586 0.0052438173 0.32505774
-0.14502765 0.0051741847 0.3250837
-0.13524485 0.0048935763 0.32516688
-0.12896806 0.0030645591 0.32477781
-0.021734964 0.0085507873 0.32678577
-0.015126991 0.0086566554 0.32845849
-0.0048664883 0.0086578075 0.32850006
0.0027904788 0.0086489124 0.32816672
0.10330881 0.0096144993 0.32900003
-0.22344621 0.011733843 0.32227275
-0.21510014 0.012260078 0.32172877
-0.20504162 0.012241379 0.32160008
-0.19456494 0.012816634 0.32133764
-0.18492664 0.013074038 0.32154113
-0.17483531 0.013075194 0.3215715
-0.1649759 0.01310363 0.32180715
-0.15499929 0.01308533 0.32185695
-0.14493161 0.013108971 0.32167462
-0.13600568 0.01303206 0.3214688
-0.021501709 0.015155647 0.32508117
-0.014998171 0.015359857 0.32565308
-0.0048245154 0.015360692 0.32566684
0.0053137653 0.015388356 0.32553172
0.014928958 0.016157003 0.32320172
0.02468414 0.0168024 0.3228887
0.034693487 0.01756355 0.32317936
0.045029253 0.017784221 0.32349986
0.055562265 0.015896825 0.32702041
0.064253956 0.016894421 0.32795826
0.075034887 0.018032093 0.32774469
0.08495304 0.017988024 0.32778254
0.095445842 0.017488861 0.32739127
0.10170362 0.018085862 0.32494116
-0.021471635 0.024749305 0.32151228
-0.014760327 0.025163634 0.32226267
-0.0047835181 0.02531318 0.32294437
0.0053089028 0.025332432 0.32315996
0.015091409 0.025412804 0.32305959
0.024764901 0.025264584 0.32324848
0.034765698 0.025345542 0.32325026
0.044871047 0.025348306 0.32329196
0.055013008 0.025048872 0.32371944
0.064971283 0.024995673 0.32375348
0.075021684 0.024958614 0.32376948
0.085039623 0.02497456 0.32376495
0.094853655 0.024733391 0.32367823
0.10186543 0.023355599 0.32310715
0.22425416 0.028373022 0.32900003
0.25851631 0.02965785 0.32900003
0.26494044 0.029657848 0.32900003
0.2713646 0.02965785 0.32900003
-0.0022033323 0.030815737 0.31999999
0.00557851 0.031029142 0.3200385
0.015270248 0.031377688 0.32033339
0.025591588 0.031692673 0.32045457
0.035593037 0.032051746 0.32059261
0.045331586 0.032237813 0.32059985
0.055102244 0.032279588 0.32057878
0.064862557 0.032237805 0.32059994
0.07487876 0.032237805 0.32059994
0.084894985 0.032237805 0.32059997
0.093063317 0.032172468 0.32060528
0.22751452 0.035965342 0.32507277
0.23500659 0.035271026 0.3257345
0.24491072 0.035338975 0.32569039
0.25504783 0.035107035 0.32581785
0.26475704 0.034638181 0.3260895
0.27101037 0.031663418 0.32811114
0.22679856 0.044885505 0.32089895
0.2350954 0.044806659 0.32099965
0.2451241 0.044806648 0.32099962
0.25484011 0.043526653 0.32123908
0.26327574 0.042932786 0.32145452
0.22770044 0.052590512 0.31999996
0.23438436 0.051776327 0.3199999
0.24280077 0.050611854 0.32000002
-0.11808529 -0.033769745 0.33800003
-0.24082494 -0.024731003 0.33793333
-0.23512481 -0.024482658 0.33801782
-0.22505507 -0.02364078 0.33799988
-0.21499391 -0.023694646 0.33801082
-0.20513226 -0.023242718 0.33793813
-0.19513737 -0.023179168 0.3379871
-0.18494482 -0.022742035 0.33782595
-0.17484598 -0.022783089 0.33786938
-0.16611382 -0.021770885 0.33828953
-0.15506209 -0.020630833 0.33900002
-0.14491232 -0.020630833 0.33900002
-0.13520384 -0.020630833 0.33900002
-0.12490698 -0.022543108 0.33900002
-0.23399337 -0.01672495 0.33363372
-0.22487755 -0.015189014 0.33283749
-0.2149585 -0.015080381 0.33292368
-0.20503436 -0.015139505 0.33378369
-0.19498342 -0.015051454 0.33421865
-0.18497573 -0.015221862 0.33432779
-0.17497019 -0.015051464 0.33421877
-0.16493803 -0.015131162 0.33430952
-0.15495463 -0.015147426 0.3343623
-0.14494358 -0.015134407 0.33436519
-0.1349328 -0.015147426 0.33436221
-0.12686637 -0.015730547 0.33459088
-0.020507079 -0.010712931 0.33250001
-0.015625281 -0.012502114 0.33783635
-0.0050146324 -0.011348188 0.33850002
0.0013016633 -0.011497009 0.33855557
-0.22397371 -0.0084844884 0.32999995
-0.21489489 -0.0085157603 0.33008888
-0.20497428 -0.008503818 0.33036742
-0.19483861 -0.0084606782 0.33047831
-0.18494961 -0.0085366191 0.33052179
-0.17504936 -0.0084606791 0.3304784
-0.16515774 -0.0085366173 0.33052176
-0.15504551 -0.0084986454 0.33050004
-0.14493527 -0.0084606744 0.33047828
-0.1350397 -0.0085366191 0.33052182
-0.12884012 -0.0087594865 0.33060002
-0.020703649 -0.0060559288 0.33218747
-0.015031094 -0.0049047214 0.33514512
-0.0049695158 -0.0047071651 0.33545455
0.0016603635 -0.0046776198 0.33518746
0.069059044 -0.00209289 0.338
0.075020112 -0.0016242664 0.33823407
0.085140772 -0.0016819702 0.33826667
0.093952917 -0.0017822307 0.33823523
0.10074148 -0.0053326287 0.33900002
-0.021345623 0.0030848668 0.33121735
-0.015053318 0.0036273836 0.33133715
-0.00490908 0.0035527779 0.33137503
0.001366379 0.0042183581 0.33083332
0.067103691 0.0064347135 0.33326092
0.074916981 0.0049291053 0.33462018
0.085056163 0.004929841 0.33461407
0.094870657 0.0049424018 0.33323073
0.1022551 0.0058707641 0.33100012
0.066115074 0.012381676 0.33081964
0.075055644 0.013083731 0.33135477
0.085028104 0.012968899 0.33140239
0.094869673 0.012548793 0.33103651
0.10080089 0.010871192 0.33075005
0.22926013 0.017135771 0.33542857
0.23564833 0.015766075 0.33672369
0.2449462 0.014987714 0.33727551
0.25496808 0.015125152 0.33719859
0.26503581 0.01491631 0.33730236
0.27477145 0.014847799 0.33734143
0.28049535 0.010701062 0.33900002
0.22774211 0.025994472 0.33128262
0.23501784 0.025170246 0.33257908
0.24509221 0.025420718 0.33318177
0.25493589 0.025144175 0.3333427
0.26496622 0.024916966 0.33339509
0.27354899 0.02426061 0.33373609
0.2283724 0.030607151 0.33000001
0.23481607 0.030607155 0.32999998
0.24512596 0.030607155 0.32999998
0.25328794 0.030607151 0.33000001
-0.25027138 -0.051451139 0.34900001
-0.24754548 -0.051791877 0.34900001
-0.24421549 -0.044828795 0.3474566
-0.23488109 -0.044711426 0.3477779
-0.22492126 -0.044711404 0.3477779
-0.21515898 -0.044009488 0.34769049
-0.20505056 -0.042631768 0.34802863
-0.19490759 -0.042493165 0.34816656
-0.18507373 -0.042069875 0.34801778
-0.17494342 -0.041984644 0.34798217
-0.16482531 -0.042043898 0.34807131
-0.15483227 -0.042076588 0.34861413
-0.14474221 -0.042114649 0.34880009
-0.13482523 -0.042126723 0.34875926
-0.12824206 -0.041895237 0.34829414
-0.24234846 -0.036819786 0.34436589
-0.23502856 -0.035285864 0.34372792
-0.2250066 -0.035205044 0.34378874
-0.21495609 -0.035309516 0.34396824
-0.20499291 -0.034938879 0.34408626
-0.19500671 -0.034852527 0.34439301
-0.1849651 -0.034801316 0.34435692
-0.17491543 -0.034957491 0.34452209
-0.16493225 -0.034920283 0.34488603
-0.15494628 -0.034938287 0.34504539
-0.14508793 -0.034944367 0.34509999
-0.13523199 -0.034748401 0.34471026
-0.12525198 -0.034450457 0.34216997
-0.11966921 -0.033084374 0.33999997
-0.020829592 -0.033570912 0.34500003
-0.015877958 -0.032298919 0.34861535
-0.0047158697 -0.031234264 0.34900001
0.0019731005 -0.031300362 0.34881818
-0.23290569 -0.029135058 0.33999997
-0.22500706 -0.028658418 0.34000006
-0.2152988 -0.02871 0.34029418
-0.20499848 -0.028275924 0.3403556
-0.19491163 -0.028225388 0.34085706
-0.18498585 -0.027874688 0.34082127
-0.17496195 -0.027792204 0.34077185
-0.16457823 -0.026339436 0.34048888
-0.15508166 -0.025642548 0.34041071
-0.14493214 -0.025512774 0.34037602
-0.13483356 -0.025631383 0.34041446
-0.12635502 -0.026265534 0.34041891
-0.02074909 -0.02181044 0.34366667
-0.014583918 -0.02508647 0.34645787
-0.004731271 -0.025129685 0.34656769
0.001974036 -0.025151908 0.34654048
0.076756857 -0.02191134 0.34841669
0.085140169 -0.022124199 0.34859991
0.095123574 -0.022124199 0.34860009
0.10400279 -0.022029838 0.34844181
-0.020618277 -0.019449979 0.34150001
-0.014190636 -0.017210826 0.34084597
-0.0050479635 -0.016748751 0.34074977
0.0018587371 -0.016715528 0.34071431
0.075893924 -0.014937288 0.3453854
0.084859215 -0.014743435 0.34528708
0.094908036 -0.01464639 0.3452177
0.10305682 -0.014734643 0.34520558
0.075301073 -0.0065119257 0.340763
0.085023947 -0.0065491656 0.34085703
0.094914027 -0.0065150298 0.34083527
0.10281726 -0.0086775357 0.3414616
0.22908565 -0.003040574 0.34600002
0.23487735 -0.0029405265 0.34725717
0.24497145 -0.0026074173 0.34766665
0.25492811 -0.0026074173 0.34766674
0.26503375 -0.0025805596 0.34764722
0.27521485 -0.0025735472 0.34764194
0.28454274 -0.0029631637 0.3478727
0.22804199 0.0027406947 0.34299999
0.2351978 0.0048279492 0.34309408
0.24499328 0.0050161011 0.34299991
0.25501937 0.0050728456 0.34295985
0.26500326 0.0050446475 0.34297547
0.27490881 0.0049721678 0.3430247
0.28228936 0.0041083246 0.34357408
-0.25732565 -0.071151234 0.359
-0.25418076 -0.065330982 0.35729769
-0.24511532 -0.064494655 0.35717338
-0.23511174 -0.064315915 0.35712758
-0.22498374 -0.063985609 0.35705888
-0.21508697 -0.064050481 0.35724154
-0.20477562 -0.064032152 0.35739154
-0.19523528 -0.063460834 0.35819402
-0.18496506 -0.063295856 0.35816664
-0.17494084 -0.063319586 0.35817447
-0.16491631 -0.063295856 0.35816669
-0.15489241 -0.063272111 0.35815859
-0.14510046 -0.063319564 0.35817459
-0.13507664 -0.063295841 0.35816655
-0.12640832 -0.063118882 0.35799995
-0.25280684 -0.05786733 0.35350004
-0.24424189 -0.05540581 0.35227665
-0.2350691 -0.054912183 0.35228717
-0.22486806 -0.054951228 0.35275215
-0.2151213 -0.055156786 0.35430375
-0.2051373 -0.055313092 0.35478166
-0.19503677 -0.055331066 0.35489091
-0.18501601 -0.055300537 0.35488787
-0.1749917 -0.055332579 0.35489985
-0.16487019 -0.055345975 0.35499102
-0.15498516 -0.055347309 0.35500008
-0.14507781 -0.055317517 0.35505393
-0.13496666 -0.055307772 0.35508314
-0.12575488 -0.056011885 0.3551293
-0.24347089 -0.049548302 0.35000005
-0.23526983 -0.049548302 0.34999999
-0.22524634 -0.049548302 0.34999999
-0.214338 -0.048789911 0.35070598
-0.20498717 -0.047905058 0.35116979
-0.19511293 -0.047892097 0.35120007
-0.18499997 -0.047445938 0.3510153
-0.17501906 -0.04740876 0.35099998
-0.16491494 -0.047394149 0.35104474
-0.15483636 -0.047430623 0.35116652
-0.14502196 -0.047509383 0.35158461
-0.13513039 -0.047522414 0.35183337
-0.12871836 -0.0475224 0.3518334
-0.020422446 -0.042686932 0.35350001
-0.015005787 -0.044884931 0.35599995
-0.0048104567 -0.044847313 0.35600016
0.003282048 -0.045023661 0.35596427
0.075841196 -0.040852711 0.359
0.084876239 -0.040541165 0.359
0.095157482 -0.040541165 0.359
0.10326041 -0.040658552 0.35885715
-0.020278014 -0.038725641 0.35100004
-0.014088005 -0.036964748 0.3513521
-0.0047496501 -0.036497734 0.35150009
0.0019720097 -0.03657759 0.35151726
0.076702893 -0.035118017 0.35689041
0.085099407 -0.035144072 0.35697192
0.095049627 -0.035178948 0.35667899
0.10273252 -0.03422945 0.35460711
0.076829337 -0.027713506 0.35278949
0.084867306 -0.027425271 0.3524999
0.095017023 -0.027452292 0.3521764
0.10415504 -0.027420502 0.35112724
0.22910835 -0.026913432 0.35800001
0.23570395 -0.022211544 0.35773537
0.24485767 -0.022312911 0.35839024
0.25503951 -0.022300748 0.35875005
0.26520187 -0.022334371 0.35876751
0.27499872 -0.022265485 0.35873187
0.28491014 -0.02234114 0.35888383
0.29392228 -0.022253325 0.35888249
0.22927833 -0.016581306 0.35300002
0.23508897 -0.015082477 0.35349557
0.24506703 -0.015037031 0.35450014
0.25495717 -0.015088632 0.35479847
0.2649191 -0.015115796 0.35488912
0.27487454 -0.015156637 0.35491666
0.2849552 -0.015148599 0.35490856
0.29265186 -0.0160472 0.35542375
0.23581631 -0.0080384146 0.35048661
0.24486125 -0.0076421429 0.35040009
0.25489622 -0.0076421429 0.35040009
0.26493114 -0.0076421453 0.35040012
0.27496609 -0.0076421462 0.35040006
0.28500098 -0.0076421439 0.35040009
0.29064065 -0.0087410193 0.35060003
-0.26330435 -0.091069713 0.36853844
-0.25513542 -0.090994596 0.36847618
-0.24569054 -0.091056228 0.36873683
-0.26243931 -0.085842051 0.36624438
-0.25479946 -0.084901631 0.36611012
-0.24489947 -0.084854089 0.3662172
-0.23501751 -0.084398955 0.36636001
-0.22511646 -0.084045641 0.36693406
-0.2150065 -0.083588324 0.36742458
-0.20517863 -0.083356261 0.36731893
-0.19503066 -0.083049163 0.36716139
-0.18529737 -0.082772091 0.36739659
-0.17520677 -0.082660541 0.36805788
-0.1649584 -0.082338393 0.36847633
-0.15488262 -0.082440443 0.36852393
-0.14481248 -0.082338437 0.36847627
-0.134977 -0.082389422 0.36850011
-0.12465089 -0.082808122 0.36858341
-0.11904535 -0.083618574 0.36872724
-0.26080969 -0.078690767 0.36299998
-0.25448075 -0.075619057 0.3624599
-0.24505316 -0.074841067 0.36221069
-0.23503102 -0.074837983 0.36233684
-0.22492732 -0.074999675 0.36265314
-0.21499743 -0.074989937 0.36278504
-0.2050852 -0.075001307 0.36288658
-0.19494441 -0.074843816 0.36339059
-0.18491694 -0.074618898 0.36349991
-0.17495221 -0.074845582 0.36409077
-0.16509865 -0.074893191 0.36486828
-0.15502921 -0.074944176 0.36489612
-0.14500956 -0.074909888 0.36488578
-0.13493785 -0.074939743 0.36489701
-0.12590297 -0.075592667 0.36521503
-0.25136444 -0.069709212 0.36000001
-0.24480362 -0.069709204 0.36000004
-0.23418133 -0.069396779 0.36000007
-0.22512111 -0.069240578 0.3600001
-0.21481124 -0.069240578 0.3600001
-0.20496997 -0.06924057 0.36000007
-0.19517951 -0.068324737 0.36036846
-0.18483242 -0.067865081 0.36031246
-0.17498331 -0.067932688 0.36035493
-0.16513284 -0.067865096 0.36031246
-0.1549698 -0.067898393 0.36033335
-0.14496134 -0.06793271 0.36035478
-0.1351144 -0.067865074 0.36031252
-0.12729497 -0.067898363 0.36033338
-0.014054248 -0.064367153 0.3676666
-0.0051462068 -0.062902011 0.36739695
0.0050845756 -0.062605634 0.36780012
0.015021334 -0.062134176 0.36753327
0.023016542 -0.061703879 0.36692864
0.10665314 -0.061026424 0.36869997
-0.014722026 -0.054450575 0.3615253
-0.0048901797 -0.054543063 0.36190009
0.0046096309 -0.054895762 0.36208898
0.012544811 -0.058431868 0.36416665
0.076715618 -0.053471547 0.36697564
0.085198797 -0.054049682 0.36715993
0.095121339 -0.055250585 0.36742848
0.10411945 -0.055417031 0.36710709
0.07733687 -0.045559794 0.36227083
0.085008651 -0.045648817 0.36243764
0.095020644 -0.045681566 0.36246318
0.10263525 -0.04581048 0.36244014
0.23695418 -0.042271744 0.36805263
0.24514696 -0.041563682 0.36831254
0.25465807 -0.041608576 0.36844447
0.26496881 -0.041190092 0.36899999
0.27505606 -0.041190088 0.36899999
0.28514338 -0.041190092 0.36899999
0.29523063 -0.040709741 0.36899999
0.3029162 -0.040709745 0.36899999
0.22945102 -0.032218728 0.36000001
0.23636758 -0.034418914 0.36396614
0.24520589 -0.035109792 0.36608273
0.25499398 -0.035179231 0.36620587
0.26505357 -0.035108194 0.36617324
0.27506384 -0.035221655 0.36622617
0.28497928 -0.035087686 0.3661668
0.29507777 -0.035396706 0.36666033
0.30231163 -0.035224024 0.36686355
0.2357766 -0.027073611 0.36057705
0.24495623 -0.027175335 0.36111465
0.25514674 -0.027209476 0.36177808
0.26500019 -0.027142271 0.36179042
0.27497208 -0.027244417 0.36186156
0.28509593 -0.027205672 0.36201632
0.29477099 -0.027211301 0.36231032
0.30082354 -0.029129997 0.36433336
-0.27231184 -0.1125742 0.37887499
-0.26526657 -0.11123109 0.37850007
-0.25532079 -0.11127029 0.37871438
-0.24538973 -0.11137736 0.37900007
-0.23502904 -0.11137735 0.37900007
-0.22755809 -0.11116593 0.37899998
-0.27174664 -0.10467038 0.37440619
-0.26518774 -0.10485319 0.37519404
-0.25501624 -0.10505988 0.37567371
-0.24491276 -0.10503888 0.37567037
-0.23507786 -0.10502712 0.37566668
-0.22504552 -0.10514848 0.37623763
-0.21517621 -0.10437666 0.37726927
-0.20519894 -0.10312687 0.3776775
-0.19507834 -0.10314512 0.37788913
-0.18521179 -0.10233852 0.37815908
-0.17520443 -0.10242343 0.37872493
-0.16498452 -0.10246924 0.37876737
-0.15596986 -0.10180237 0.37870845
-0.14474337 -0.10052332 0.37900007
-0.13487607 -0.10002999 0.37899998
-0.27112105 -0.097379372 0.37176925
-0.2646611 -0.096227273 0.3714287
-0.25492105 -0.09611921 0.37143666
-0.24459641 -0.09583354 0.37144443
-0.2348205 -0.095159434 0.37179151
-0.22486898 -0.095464252 0.3727071
-0.21505927 -0.095158279 0.37332326
-0.20504552 -0.094681762 0.37359378
-0.19500111 -0.094926678 0.37436065
-0.18494508 -0.094953798 0.37459338
-0.17500018 -0.094951689 0.37474471
-0.16500597 -0.095173448 0.37512895
-0.15506966 -0.095209494 0.37559587
-0.14503831 -0.094846077 0.37557647
-0.13493937 -0.094810128 0.37576824
-0.12635712 -0.094534099 0.37568438
-0.11995533 -0.090191334 0.37100002
-0.23426434 -0.089948229 0.37
-0.22434242 -0.089370266 0.36999995
-0.21520783 -0.088566095 0.36999992
-0.20432162 -0.08829017 0.37019226
-0.19481668 -0.088156871 0.37043747
-0.18481724 -0.087828293 0.37094876
-0.17481773 -0.087617859 0.37100002
-0.16505639 -0.087232001 0.37096155
-0.15502192 -0.087361537 0.37103856
-0.14506771 -0.087296702 0.3709999
-0.13511656 -0.087232009 0.37096149
-0.12602602 -0.087519974 0.37104869
-0.11995533 -0.08874248 0.37100002
-0.014350515 -0.083246477 0.37791666
-0.0048903306 -0.082853906 0.37815547
0.0052290391 -0.08260075 0.37824997
0.014740304 -0.082001194 0.37853664
0.024568722 -0.081101887 0.3786667
0.034437608 -0.080385119 0.37899998
0.044708557 -0.080295421 0.37899998
0.050135564 -0.080295414 0.37900001
-0.01490052 -0.075077496 0.37298775
-0.0049422872 -0.074976504 0.37394398
0.0051745246 -0.074909583 0.37422019
0.01488529 -0.074791923 0.37555453
0.024923544 -0.074602999 0.37561306
0.035002049 -0.07476797 0.37601092
0.044977359 -0.074833341 0.3762309
0.054711293 -0.074377455 0.37706581
0.06499137 -0.074123345 0.37733319
0.075025797 -0.073997997 0.37725353
0.084988482 -0.074014425 0.37726778
0.095021412 -0.074030288 0.37727767
0.10490708 -0.074083522 0.37726077
0.1139081 -0.07682009 0.37878269
-0.01332932 -0.06898234 0.36999995
-0.0050053336 -0.067878053 0.37046152
0.0051231124 -0.067412302 0.37054998
0.014894442 -0.067126334 0.37140808
0.025132921 -0.066662252 0.37181801
0.035194971 -0.066763528 0.37229985
0.045135189 -0.065992817 0.3720811
0.054991081 -0.065247141 0.37187365
0.065099262 -0.064867966 0.37184182
0.075079992 -0.064618811 0.37176195
0.085116878 -0.064768009 0.37170869
0.094957501 -0.064999267 0.37159371
0.10487942 -0.065680943 0.37177384
0.23716772 -0.0620736 0.37859997
0.24501447 -0.061054192 0.37900007
0.25414172 -0.060930859 0.37900004
0.26474908 -0.06056083 0.37899998
0.27461633 -0.06056083 0.37899998
0.28497699 -0.060560826 0.37899998
0.29385757 -0.06056083 0.37899998
0.31374884 -0.060401049 0.37800002
0.066892795 -0.058423921 0.37099993
0.074794963 -0.058032159 0.3705135
0.084265895 -0.058641069 0.36999995
0.23820572 -0.056322001 0.37655175
0.24506217 -0.054693393 0.37589997
0.25504154 -0.0546536 0.37588447
0.26515284 -0.054703366 0.37632307
0.27501282 -0.054784399 0.37675762
0.28488201 -0.054825485 0.37655652
0.2948741 -0.054724988 0.37643436
0.30513304 -0.053940907 0.37761772
0.31225541 -0.054022554 0.37810001
0.23884392 -0.045968276 0.37110001
0.24500024 -0.046309132 0.37150002
0.25515309 -0.046209898 0.37145159
0.26510522 -0.04589453 0.37180889
0.27500671 -0.045846585 0.3719728
0.2850365 -0.045890182 0.37199995
0.29503298 -0.045505866 0.37200001
0.30448452 -0.045584302 0.37227038
0.31077063 -0.049182214 0.37500003
-0.28172752 -0.13240793 0.38872728
-0.27509516 -0.13196982 0.38868964
-0.26513991 -0.13192719 0.38866672
-0.25530517 -0.13144585 0.38889652
-0.24600479 -0.13037564 0.38899997
-0.28082958 -0.12817311 0.386875
-0.27442443 -0.12539229 0.38601241
-0.26495826 -0.12503518 0.38611111
-0.25520852 -0.12503026 0.38674739
-0.24504144 -0.12486615 0.38712674
-0.23503169 -0.12493423 0.38725927
-0.22509128 -0.1243781 0.38715509
-0.21503247 -0.12439717 0.38739434
-0.20487905 -0.12445057 0.38742861
-0.19485641 -0.12449235 0.38755718
-0.18519381 -0.12388647 0.38766673
-0.1754595 -0.12187731 0.38841179
-0.16881773 -0.12089906 0.38900003
-0.27172706 -0.11621129 0.38104767
-0.26496753 -0.11605114 0.3813749
-0.25489584 -0.11622874 0.38181964
-0.24490143 -0.11619233 0.38183329
-0.23496036 -0.11619235 0.38183346
-0.22462696 -0.11539808 0.38173082
-0.21516213 -0.11501817 0.38303965
-0.20490144 -0.11525578 0.38366669
-0.19481982 -0.11520339 0.38367391
-0.18498796 -0.11502028 0.38461185
-0.17491302 -0.11471394 0.38509792
-0.16522048 -0.114699 0.38611498
-0.15527262 -0.11433599 0.38660535
-0.14507735 -0.11317658 0.38695922
-0.13510184 -0.11322976 0.38700011
-0.12504521 -0.11324699 0.38705999
-0.11471144 -0.11316214 0.38752726
-0.10493214 -0.11257305 0.38799998
-0.095635831 -0.11191625 0.38815793
-0.086680323 -0.11116967 0.38891664
-0.21352796 -0.10902242 0.38025007
-0.20499344 -0.10826744 0.38031256
-0.19448949 -0.10829432 0.38040632
-0.18494532 -0.10717607 0.3810952
-0.17488299 -0.10707791 0.38124999
-0.16497818 -0.10709214 0.3813
-0.15460034 -0.10626709 0.3815591
-0.14499484 -0.10574002 0.38201338
-0.13489099 -0.10527655 0.38199988
-0.12498309 -0.10505375 0.38326541
-0.1150102 -0.10517524 0.38518354
-0.10515683 -0.10513984 0.38601193
-0.095119081 -0.10496331 0.38608778
-0.085197285 -0.10514594 0.38691097
-0.075142011 -0.10517075 0.38699991
-0.06512399 -0.10511926 0.38697767
-0.055429585 -0.1049711 0.3873854
-0.045212481 -0.10396888 0.38795078
-0.035042591 -0.10392408 0.38799992
-0.025079368 -0.1038323 0.3879827
-0.014942143 -0.1029162 0.38778058
-0.0046977261 -0.10221843 0.38787186
0.0053638248 -0.10190223 0.38800007
0.014967789 -0.10194606 0.38816679
0.021498293 -0.10174559 0.38878569
-0.12264156 -0.099171847 0.38033336
-0.11887877 -0.099449247 0.38150004
-0.073763043 -0.09920796 0.38500008
-0.064842135 -0.099107713 0.38500011
-0.05436575 -0.098899506 0.38536006
-0.044762231 -0.098789714 0.38596767
-0.034641426 -0.09815713 0.38566661
-0.024310932 -0.09716966 0.38514033
-0.014695193 -0.095419139 0.38423339
-0.0048363572 -0.09517359 0.38440472
0.0054445034 -0.094737746 0.38497695
0.015309683 -0.094643176 0.38533711
0.024979431 -0.094716243 0.38672492
0.034869656 -0.094586052 0.38688609
0.044886854 -0.094575949 0.38692492
0.054970868 -0.094593525 0.38700005
0.064363413 -0.09417583 0.38723433
0.075002678 -0.092733696 0.38767511
0.085312143 -0.092349105 0.3876383
0.095069811 -0.092163093 0.38757136
0.10505851 -0.092211202 0.38760003
0.11332151 -0.092423812 0.38756251
-0.020027306 -0.089646555 0.38100001
-0.014564817 -0.088125423 0.38084984
-0.0043769721 -0.087900668 0.38106656
0.0050280537 -0.087395422 0.38123256
0.015673196 -0.086810805 0.38131908
0.025301492 -0.086114757 0.38144445
0.035128836 -0.08534684 0.38150629
0.045024514 -0.085341588 0.38167483
0.055104632 -0.085032202 0.38231456
0.065042488 -0.085053518 0.38280916
0.075048395 -0.085216805 0.38333347
0.084820278 -0.08476831 0.38314807
0.094943985 -0.084586143 0.38307345
0.10504031 -0.084670395 0.38312516
0.11352062 -0.085091256 0.38324559
0.2380611 -0.082037807 0.38579997
0.24513905 -0.083239049 0.3879149
0.25489461 -0.082544938 0.38841671
0.26089796 -0.081198715 0.38900003
0.056432147 -0.079061322 0.38000008
0.064613178 -0.079023287 0.38000008
0.075001158 -0.079023279 0.38000008
0.085389152 -0.079023279 0.38000008
0.095282473 -0.079023287 0.38000008
0.10517579 -0.079023294 0.38000008
0.11309045 -0.079023279 0.38000008
0.23879215 -0.076149017 0.38520005
0.24505389 -0.07508786 0.38506293
0.25461775 -0.07511808 0.38576463
0.26480696 -0.07457982 0.38680717
0.2749432 -0.074392393 0.38674998
0.28501219 -0.074392386 0.38674992
0.29495358 -0.074365482 0.38674349
0.30489844 -0.074392363 0.38674974
0.31517151 -0.074300945 0.38655278
0.32079983 -0.077394724 0.38820004
0.23851863 -0.065723859 0.38060004
0.24493563 -0.065859228 0.38124982
0.2548098 -0.065736704 0.38163233
0.26492462 -0.065541349 0.38234577
0.27494135 -0.065589234 0.38237518
0.28502038 -0.065615937 0.38239017
0.29501894 -0.065533787 0.38262677
0.30509126 -0.065234385 0.38320217
0.31401452 -0.065781899 0.38353643
0.3062081 -0.059038758 0.38000008
0.3124409 -0.058741964 0.38000008
-0.29161081 -0.15236616 0.39876926
-0.28606197 -0.15166502 0.39900005
-0.27495983 -0.15101577 0.39899999
-0.26509121 -0.15101577 0.39899999
-0.25833902 -0.15101577 0.39900002
-0.29139692 -0.14988299 0.39875001
-0.28443685 -0.1450419 0.39577758
-0.27513748 -0.14540847 0.39637658
-0.26508427 -0.14532958 0.3963418
-0.25491676 -0.1454386 0.39651257
-0.24509546 -0.14470336 0.39698774
-0.2351822 -0.14441399 0.39735138
-0.22510785 -0.14376484 0.39738986
-0.21494292 -0.14369991 0.39768851
-0.20526798 -0.14265567 0.39824247
-0.19484593 -0.14253238 0.3984139
-0.18530212 -0.14188242 0.3985334
-0.17501552 -0.14097093 0.39850011
-0.16734999 -0.14089572 0.39877775
-0.28341764 -0.13794743 0.39248279
-0.27502951 -0.13711663 0.39197922
-0.26502994 -0.13714528 0.39199996
-0.25471777 -0.13665578 0.39176348
-0.2449701 -0.13537037 0.39192194
-0.23509118 -0.13466977 0.3924357
-0.22499932 -0.13475256 0.39258021
-0.21501513 -0.13494946 0.39274988
-0.20515791 -0.1350612 0.39328903
-0.19497126 -0.13512062 0.3936075
-0.18522027 -0.13515916 0.39466661
-0.17485777 -0.13512385 0.3951177
-0.16481231 -0.13512906 0.39606255
-0.15502484 -0.13522616 0.39707682
-0.14494464 -0.13532369 0.39712825
-0.13486145 -0.13535424 0.39714107
-0.12506749 -0.13492501 0.39722544
-0.11520816 -0.13350907 0.39754379
-0.10527885 -0.13245273 0.39813522
-0.096479215 -0.13169758 0.39880005
-0.08485961 -0.1312786 0.39899999
-0.074991018 -0.13127859 0.39899999
-0.065641835 -0.13058606 0.39899999
-0.22458918 -0.12933278 0.39000005
-0.21494322 -0.12933278 0.39000005
-0.20478956 -0.12933278 0.39000005
-0.19463588 -0.12933278 0.39000005
-0.18376046 -0.12860903 0.39076003
-0.17488724 -0.127166 0.39100003
-0.16497935 -0.12510176 0.39127654
-0.15496768 -0.12494624 0.3923803
-0.1449829 -0.12532401 0.39333332
-0.13491304 -0.12536275 0.39334485
-0.12503113 -0.12538192 0.39340219
-0.1151754 -0.12491906 0.3933703
-0.10500453 -0.12503742 0.3939752
-0.094877303 -0.12522352 0.3953096
-0.08504191 -0.1249672 0.3957701
-0.075034678 -0.12520641 0.3959319
-0.065106004 -0.12488757 0.39621949
-0.055074133 -0.12499693 0.39723399
-0.045631077 -0.12446879 0.39760008
-0.034874465 -0.12357556 0.39760017
-0.025040505 -0.12357551 0.39760008
-0.015207653 -0.12358781 0.39764011
-0.0048558149 -0.123078 0.39766687
0.0040610195 -0.12244914 0.39794597
0.014865083 -0.1208906 0.39899999
0.025253072 -0.1208906 0.39899999
0.03252466 -0.1208906 0.39900002
-0.15168162 -0.11845729 0.39022225
-0.1450067 -0.11826561 0.39033324
-0.13484436 -0.11826561 0.39033332
-0.12468202 -0.1182656 0.39033329
-0.11485301 -0.11830916 0.3903572
-0.10524291 -0.11789928 0.39080006
-0.094785571 -0.11702089 0.39100006
-0.084651999 -0.11547223 0.39113447
-0.075047858 -0.11500567 0.39148098
-0.064948142 -0.11511277 0.39168742
-0.054658521 -0.11496783 0.39210582
-0.044868223 -0.11511946 0.39308044
-0.035086006 -0.11511462 0.39351147
-0.025189944 -0.11505599 0.39351133
-0.015056623 -0.11519967 0.39372206
-0.0048146718 -0.11487267 0.39436239
0.0049473196 -0.1150308 0.39490265
0.014745133 -0.11528434 0.39576241
0.025233936 -0.11516145 0.39628237
0.035090789 -0.11488813 0.39655972
0.044748373 -0.1147424 0.3965252
0.054950122 -0.11437184 0.39634198
0.064807549 -0.11429389 0.39674649
0.07484322 -0.11389433 0.39746693
0.08460281 -0.11332721 0.3978126
0.095060997 -0.11194011 0.39856672
0.10467854 -0.11123558 0.39883342
0.11510918 -0.111022 0.39900005
0.12082256 -0.1105026 0.39900002
-0.051976781 -0.10902544 0.39000002
-0.045136407 -0.10854449 0.38999996
-0.035268374 -0.10865754 0.39049992
-0.024731928 -0.10851895 0.39049995
-0.01482449 -0.1077343 0.39069235
-0.0045483145 -0.10745989 0.39121291
0.0051171551 -0.10730587 0.39136177
0.014773964 -0.10745531 0.39143753
0.025218515 -0.10566185 0.391507
0.035049271 -0.10509875 0.39237505
0.045104589 -0.10504145 0.3925325
0.054925103 -0.10532814 0.39302611
0.065007597 -0.10513013 0.39315659
0.075009465 -0.1048734 0.39383891
0.084908247 -0.10507534 0.39410463
0.094808012 -0.10489176 0.39501253
0.10490452 -0.10490702 0.39533344
0.11468051 -0.10499416 0.39546591
0.12410031 -0.10662392 0.39733338
0.13226078 -0.10744492 0.39825001
0.15718053 -0.10634742 0.39900002
0.16563259 -0.10615856 0.39899999
0.17172372 -0.10582803 0.39899999
0.23976503 -0.10011462 0.39900002
0.24495904 -0.10011463 0.39899999
0.25482762 -0.10011463 0.39899999
0.26157981 -0.10011462 0.39900002
0.02722187 -0.099887125 0.39000002
0.034837127 -0.099887125 0.39000005
0.0449908 -0.099887125 0.39000005
0.055144478 -0.099887125 0.39000005
0.066568144 -0.098462731 0.39016664
0.074858487 -0.097458385 0.39027038
0.084644347 -0.097412124 0.39025009
0.094804525 -0.097412132 0.39025003
0.10496472 -0.097412065 0.39025015
0.11292842 -0.097567827 0.39031819
0.23921597 -0.096440099 0.39666668
0.24507062 -0.094644345 0.39503881
0.25496718 -0.094479136 0.39490905
0.26528037 -0.094908983 0.39642653
0.27480477 -0.094748117 0.39720902
0.28489682 -0.093595006 0.39761016
0.29487062 -0.092587478 0.39761221
0.30496404 -0.092570677 0.39763269
0.31511933 -0.092632778 0.3978937
0.32491621 -0.092659518 0.39820001
0.33029717 -0.095000938 0.39825001
0.24670762 -0.087973066 0.39044443
0.25500098 -0.087115079 0.39047366
0.26540294 -0.085217714 0.3915205
0.27503198 -0.085155979 0.39248207
0.28491867 -0.084768891 0.39273414
0.29502043 -0.084779739 0.39287177
0.30479345 -0.084859319 0.3929866
0.3150287 -0.084958047 0.39367551
0.32356423 -0.085263304 0.39387271
0.26786393 -0.079579785 0.39000002
0.27497149 -0.079579778 0.39000005
0.28461748 -0.079579778 0.39000005
0.29477113 -0.079579778 0.39000005
0.30492485 -0.079579778 0.39000005
0.31507853 -0.079579778 0.39000005
0.32218608 -0.079579785 0.39000002
-0.29396251 -0.17279892 0.40840909
-0.28451988 -0.17258956 0.4084194
-0.27539787 -0.17135777 0.40854546
-0.26475856 -0.1711358 0.4085263
-0.25491747 -0.17109679 0.40849999
-0.24746306 -0.17091697 0.40877774
-0.29242405 -0.16519266 0.40368417
-0.28507951 -0.16486566 0.4038181
-0.27501944 -0.1647379 0.40440547
-0.26513246 -0.16501556 0.40556517
-0.25497112 -0.16458344 0.40560517
-0.24483587 -0.1647104 0.40579763
-0.2349453 -0.16426535 0.40620911
-0.22485143 -0.16385914 0.40683067
-0.21487704 -0.16379669 0.40758705
-0.20503077 -0.16368797 0.40759593
-0.19566336 -0.16208306 0.4080286
-0.184881 -0.16208677 0.40848282
-0.17487226 -0.16207567 0.40864286
-0.16668233 -0.16180909 0.40882349
-0.29216322 -0.15695882 0.40021059
-0.28492317 -0.15617363 0.40073436
-0.27514425 -0.15604055 0.40102971
-0.26503929 -0.15606502 0.4012858
-0.25501361 -0.15528537 0.40156719
-0.24496503 -0.15474094 0.40159228
-0.23529302 -0.15479934 0.40220514
-0.22518434 -0.15504885 0.40255728
-0.21490787 -0.15511686 0.40290144
-0.20464507 -0.15475707 0.40331781
-0.19504723 -0.15463309 0.40428951
-0.18506378 -0.15481851 0.40475953
-0.17504813 -0.15505077 0.40548712
-0.16524464 -0.15516883 0.40626678
-0.15533611 -0.15467653 0.40664998
-0.14489086 -0.15422423 0.40679374
-0.13526639 -0.15345407 0.40717882
-0.12494924 -0.15328418 0.40779158
-0.11503188 -0.15330772 0.40797836
-0.10499127 -0.15299821 0.40824506
-0.095214479 -0.1518466 0.40851521
-0.085707955 -0.15074036 0.40871426
-0.074740827 -0.15054129 0.40899998
-0.065157324 -0.15054129 0.40899998
-0.23295142 -0.14931144 0.40000001
-0.22514088 -0.14879076 0.40000007
-0.21470499 -0.14872624 0.40013045
-0.2048841 -0.14735562 0.4008809
-0.19489589 -0.14715204 0.40124336
-0.1845381 -0.14668633 0.40110886
-0.17499016 -0.14609931 0.40105283
-0.16486333 -0.14568594 0.40179172
-0.15503116 -0.14529842 0.40197417
-0.14509186 -0.14518061 0.4019866
-0.13500191 -0.14484863 0.40204564
-0.12506327 -0.1452097 0.40304226
-0.11486754 -0.14486073 0.40360266
-0.10504854 -0.14499813 0.40443242
-0.095013119 -0.14501798 0.40531334
-0.084948041 -0.1449029 0.40538809
-0.074990816 -0.14471827 0.40569854
-0.065058462 -0.14455186 0.40584621
-0.054903861 -0.14515273 0.40707725
-0.045091748 -0.14465137 0.40720907
-0.035337638 -0.14400259 0.40772012
-0.025040142 -0.143609 0.40757164
-0.015427855 -0.14306676 0.40781587
-0.0061318651 -0.14128886 0.40885711
0.0051217186 -0.14095779 0.40899998
0.013107973 -0.14095779 0.40900001
-0.12323225 -0.13979006 0.40000004
-0.11434243 -0.13826615 0.40022728
-0.10485246 -0.13746607 0.40073803
-0.094826952 -0.13643049 0.40123802
-0.085124694 -0.13610534 0.40123898
-0.07517045 -0.13596323 0.40160662
-0.064724617 -0.13544554 0.40181819
-0.055008806 -0.13490754 0.40235057
-0.044948075 -0.13525499 0.40277928
-0.034981094 -0.13520236 0.4035975
-0.024917664 -0.1350359 0.40400001
-0.015047076 -0.13487861 0.40401307
-0.0049393182 -0.13470086 0.40456247
0.0050769867 -0.13493712 0.40527785
0.015068116 -0.13514249 0.40603811
0.025112497 -0.13532408 0.40628764
0.034938909 -0.13524744 0.40653342
0.044921204 -0.13467096 0.4070299
0.054908566 -0.13393815 0.40706366
0.064282052 -0.13345119 0.40782696
0.074989542 -0.13279873 0.40828946
0.084750503 -0.13256779 0.40817145
0.09461198 -0.13207373 0.40841666
0.10521612 -0.13178837 0.40899995
0.1147996 -0.13084182 0.40899995
0.12323637 -0.13071901 0.40899995
-0.042735275 -0.12872373 0.40000007
-0.035399918 -0.12847809 0.40021425
-0.024950063 -0.12815917 0.40052634
-0.01506918 -0.12808742 0.40047374
-0.0048904126 -0.12812331 0.4005
0.0060074637 -0.12700801 0.40097147
0.014961119 -0.12584811 0.4015429
0.02490193 -0.12590167 0.40171432
0.035020772 -0.12565587 0.40181348
0.044937719 -0.12482065 0.40207884
0.05494938 -0.12468775 0.40258995
0.065061569 -0.1246323 0.40300015
0.075020693 -0.12492147 0.40342125
0.084931396 -0.12494791 0.4036893
0.094976939 -0.12521178 0.40474656
0.10511919 -0.12504379 0.40539995
0.11489744 -0.12446719 0.40538365
0.12497731 -0.12465097 0.40636015
0.13487473 -0.12483478 0.40672603
0.14461291 -0.12441107 0.40694049
0.15462999 -0.12358595 0.40772101
0.16504773 -0.12259866 0.40797785
0.17458148 -0.12249154 0.40828577
0.18505907 -0.12161541 0.40853575
0.1950582 -0.12170643 0.40871438
0.20488457 -0.12083242 0.40899998
0.214894 -0.12072594 0.40899998
0.22500992 -0.12072594 0.40899998
0.23139893 -0.12072594 0.40900001
0.068013854 -0.11911078 0.40000001
0.075766519 -0.11864795 0.40000007
0.085953943 -0.11818928 0.40053841
0.095155232 -0.11697272 0.40080002
0.10492418 -0.1162188 0.40098223
0.11495311 -0.1158084 0.40142861
0.12516674 -0.11518407 0.40205488
0.13518356 -0.11483329 0.40235451
0.14495969 -0.11462247 0.40241179
0.15502678 -0.1145934 0.40291682
0.16503924 -0.11440074 0.40319508
0.1748955 -0.11436745 0.40346497
0.18500039 -0.11496909 0.40535718
0.19488294 -0.11503405 0.40597335
0.2048839 -0.11510231 0.40616009
0.2149003 -0.11514612 0.40623683
0.22497141 -0.11525997 0.40654072
0.23471256 -0.11486564 0.40678471
0.24498706 -0.11414074 0.40661412
0.25495568 -0.11426673 0.40669659
0.26480299 -0.11409631 0.40685192
0.27509859 -0.11350361 0.40766692
0.28503689 -0.11344952 0.4076727
0.29459608 -0.11304101 0.40774477
0.3050026 -0.11246417 0.40778959
0.31476736 -0.11244383 0.40828118
0.32384631 -0.11165599 0.40879998
0.33503577 -0.11108202 0.40877777
0.12685309 -0.10973816 0.40000004
0.13518432 -0.10927531 0.40000004
0.14592864 -0.10856443 0.40069234
0.15490013 -0.10834648 0.40052634
0.16507038 -0.10831191 0.4005
0.1757693 -0.10759606 0.4006072
0.18512931 -0.10754153 0.40283793
0.19491197 -0.10768013 0.40399992
0.20543505 -0.10656869 0.40270311
0.21465693 -0.10580279 0.40193963
0.22496971 -0.10582563 0.40389448
0.23478219 -0.10495675 0.40294161
0.24503124 -0.10559101 0.40200007
0.25497571 -0.10557742 0.40199995
0.2647461 -0.10504778 0.40200007
0.27504247 -0.10475241 0.40284017
0.28502628 -0.10487133 0.40324649
0.29516256 -0.10510075 0.40394589
0.30504733 -0.10505824 0.40410802
0.31471941 -0.10501678 0.40430006
0.32491577 -0.10532124 0.40510535
0.33308172 -0.10607021 0.40549999
0.23641159 -0.099634513 0.40124997
0.27785644 -0.09932413 0.40000001
0.28586623 -0.098582968 0.40027782
0.2951695 -0.098022178 0.40054056
0.3050594 -0.097946838 0.40052629
0.31494159 -0.097810544 0.40059459
0.32506573 -0.09794762 0.4007501
0.33131585 -0.098565765 0.40114287
-0.30485567 -0.19296949 0.41786203
-0.29494983 -0.19229908 0.41771036
-0.28488907 -0.19237442 0.41775
-0.27508467 -0.19260055 0.41833335
-0.26745647 -0.19179176 0.41885725
-0.30370548 -0.18661514 0.41468894
-0.29507381 -0.18456577 0.41375393
-0.28496274 -0.18461931 0.41383603
-0.27478963 -0.18483904 0.41428995
-0.26503313 -0.1850471 0.41613516
-0.25503069 -0.18465899 0.41731596
-0.24485759 -0.18450202 0.41728577
-0.23498628 -0.18468377 0.41763625
-0.22508112 -0.18437296 0.41757679
-0.21486081 -0.18390155 0.41757774
-0.20541406 -0.18291518 0.41760463
-0.19583935 -0.18209374 0.41814807
-0.18464145 -0.18180525 0.41852641
-0.17392828 -0.18122102 0.41900012
-0.1654059 -0.1808801 0.41900012
-0.15947427 -0.18040286 0.41900003
-0.30127737 -0.17817727 0.41028574
-0.29486549 -0.17722265 0.41027027
-0.28511512 -0.17717049 0.41025001
-0.2751039 -0.17649877 0.41082743
-0.26531643 -0.17646049 0.41141823
-0.25514537 -0.1763974 0.41202089
-0.24462838 -0.17561612 0.41227698
-0.23498921 -0.1750149 0.41281825
-0.22492833 -0.17514002 0.41300011
-0.21511668 -0.17509514 0.41299999
-0.20508151 -0.17472437 0.41350701
-0.19489905 -0.17516698 0.4141846
-0.18498699 -0.17530397 0.41470158
-0.17519085 -0.17550381 0.41545314
-0.16473909 -0.17457955 0.41593173
-0.15520702 -0.17442891 0.41747823
-0.14498495 -0.17382173 0.41759259
-0.13507976 -0.17330723 0.41749999
-0.12501931 -0.1732804 0.4176001
-0.11553069 -0.17279488 0.41811115
-0.10505448 -0.17179072 0.41857904
-0.098167434 -0.17080322 0.41900006
-0.23183687 -0.1690558 0.41
-0.22403637 -0.16880947 0.41
-0.21475786 -0.16852203 0.40999997
-0.20442961 -0.16856362 0.41060871
-0.19468123 -0.16747941 0.41102174
-0.18489145 -0.16733119 0.41100007
-0.1751541 -0.16733107 0.41099995
-0.16443868 -0.16589464 0.41178685
-0.15496005 -0.16496341 0.41317907
-0.1450008 -0.16503771 0.41328564
-0.13510232 -0.16515547 0.41358218
-0.12498214 -0.16529205 0.41392422
-0.11501662 -0.16481851 0.41408113
-0.10500641 -0.16476317 0.41431993
-0.094914041 -0.16503689 0.41607478
-0.085387237 -0.16461313 0.4172647
-0.074993052 -0.1640365 0.417393
-0.06507583 -0.16358815 0.41760433
-0.054817535 -0.16348319 0.4177447
-0.044806495 -0.16358279 0.41782242
-0.034872495 -0.16380727 0.41804257
-0.025247073 -0.16426161 0.41816649
-0.015701763 -0.16385581 0.41829166
-0.0047295978 -0.16152152 0.4185501
0.005240683 -0.16112077 0.41850013
0.015046787 -0.1611208 0.41850007
0.024399048 -0.16119651 0.41887513
0.030336931 -0.16076723 0.41900003
-0.15391394 -0.15944886 0.41000006
-0.1448407 -0.15944886 0.41000003
-0.13439241 -0.15883566 0.41054544
-0.12493455 -0.15868552 0.41068986
-0.11483185 -0.15800261 0.41047373
-0.10431586 -0.15768802 0.41060868
-0.0946851 -0.15710674 0.41154549
-0.08483205 -0.15571414 0.41235858
-0.075021051 -0.15564767 0.41253558
-0.064998217 -0.15554397 0.41246432
-0.055101722 -0.15487063 0.41221547
-0.044974469 -0.15525168 0.41292644
-0.034936 -0.1547907 0.41351336
-0.025003327 -0.15514225 0.41415298
-0.01531205 -0.15526684 0.41448617
-0.0052192826 -0.15496816 0.41465756
0.0051914868 -0.15475769 0.4145714
0.014933271 -0.15503551 0.41531754
0.024798512 -0.1547564 0.41572854
0.034454286 -0.15438883 0.41662133
0.044695098 -0.15334627 0.41795236
0.055382825 -0.15192021 0.41866666
0.065192826 -0.1519202 0.41866666
0.075002842 -0.1519202 0.41866666
0.08481285 -0.15192021 0.41866672
0.094811812 -0.15187266 0.41864285
0.1038902 -0.15167737 0.4187896
0.11542471 -0.1509494 0.41900009
-0.043434162 -0.14966401 0.41000006
-0.034094084 -0.1483742 0.40999997
-0.024769332 -0.14834157 0.41027772
-0.014333382 -0.1477492 0.41075009
-0.0047772466 -0.1461633 0.41115162
0.0051485538 -0.14598212 0.41114298
0.014936599 -0.14586131 0.41134849
0.024828341 -0.14536095 0.41219723
0.035172988 -0.14553307 0.41274989
