ply
format ascii 1.0
comment PCL generated
element vertex 1383
property float x
property float y
property float z
element camera 0
property float view_px
property float view_py
property float view_pz
property float x_axisx
property float x_axisy
property float x_axisz
property float y_axisx
property float y_axisy
property float y_axisz
property float z_axisx
property float z_axisy
property float z_axisz
property float focal
property float scalex
property float scaley
property float centerx
property float centery
property int viewportx
property int viewporty
property float k1
property float k2
end_header
-0.13495648 -0.20624527 0.3741338
-0.12592287 -0.20765975 0.37650669
-0.22584246 -0.19522527 0.37492239
-0.21726792 -0.19475594 0.37900001
-0.2224867 -0.18509795 0.37416676
-0.22104484 -0.17811126 0.37218753
-0.21769103 -0.17397608 0.37459183
-0.21367456 -0.16470304 0.37425005
-0.21074308 -0.15775925 0.37350005
-0.20827882 -0.15335506 0.37551108
-0.20404436 -0.14462772 0.37447253
-0.21018194 -0.13040671 0.37
-0.20453577 -0.13467014 0.37447366
-0.21111165 -0.12489882 0.37237704
-0.20862654 -0.12556802 0.37713805
-0.21144326 -0.11457104 0.37252852
-0.20861812 -0.11499433 0.37756872
-0.2207782 -0.10054449 0.37
-0.21375515 -0.10420963 0.3733809
-0.20883296 -0.10768838 0.37786368
-0.22196211 -0.094508722 0.37252706
-0.21652627 -0.095731318 0.37613726
-0.22138543 -0.088749804 0.37650001
-0.21944422 -0.088072248 0.37849998
-0.19159816 -0.070242301 0.37800002
-0.190585 -0.069277376 0.37633333
-0.1851033 -0.064069413 0.37374422
-0.17633569 -0.061173938 0.37471431
-0.18068394 -0.059001736 0.37075001
-0.17551175 -0.054899782 0.37439606
-0.17422391 -0.045018107 0.37446082
-0.26312241 -0.030777313 0.37354547
-0.25494686 -0.030925637 0.37236845
-0.24505205 -0.030849446 0.37175003
-0.23534101 -0.030742692 0.37111121
-0.22629561 -0.030317158 0.37114286
-0.19332424 -0.0302238 0.37
-0.18361965 -0.032164626 0.37248981
-0.17541076 -0.035316531 0.37500927
-0.26469401 -0.029378001 0.37805262
-0.25440499 -0.02907436 0.37727278
-0.24485728 -0.028756017 0.37648278
-0.2349581 -0.028752614 0.37600008
-0.22515747 -0.02818663 0.37560609
-0.2148159 -0.028052371 0.37372088
-0.20479313 -0.0277241 0.37467316
-0.19486417 -0.027864026 0.375
-0.18599828 -0.028426528 0.37647828
-0.17764154 -0.029616978 0.37866664
-0.27148288 -0.010964086 0.37755555
-0.26603922 -0.010491795 0.37866673
-0.25920391 -0.010237671 0.37900001
-0.27051973 -0.0088676838 0.37666667
-0.26472324 -0.0047769733 0.37603056
-0.2561219 -0.0043842457 0.37702218
-0.26327291 0.0033019437 0.37383339
-0.25474188 0.0045550694 0.37423816
-0.24745405 0.006880126 0.37556452
-0.26243168 0.019040495 0.37055549
-0.25427806 0.01857313 0.37085366
-0.24664643 0.014631793 0.37448421
-0.27055126 0.029231476 0.37900001
-0.26424283 0.025442818 0.37496156
-0.25524139 0.024263676 0.37539998
-0.24690782 0.022634931 0.37657622
0.31291881 0.037420157 0.377
-0.2629185 0.046181783 0.37270454
-0.25474405 0.046553481 0.3733736
-0.24537399 0.04713352 0.37529629
-0.23903558 0.048063718 0.37788886
0.31226665 0.047131922 0.37762502
-0.24274033 0.054271784 0.37357804
-0.2393844 0.055781581 0.37840003
-0.13435569 0.058418985 0.3741923
-0.12825283 0.059295464 0.37614289
-0.10527422 0.058833342 0.37899998
0.2990205 0.059438545 0.37866664
0.30656403 0.056810688 0.3780148
0.31115174 0.054475326 0.37656766
-0.24126092 0.064998522 0.37260729
-0.2393278 0.065074913 0.37799999
-0.1233063 0.062759787 0.37384748
-0.11819877 0.066975802 0.37544188
-0.097380385 0.060806796 0.37900001
0.28991064 0.069687352 0.37900001
0.29626715 0.065909721 0.37693751
0.30505604 0.064965941 0.3746691
0.31028071 0.060653195 0.375
-0.24243957 0.075177602 0.37350589
-0.23934138 0.073506221 0.3780953
-0.11325038 0.074943878 0.37414515
-0.1082574 0.078930467 0.37760001
0.2875106 0.07669048 0.3779608
0.29511389 0.074963875 0.37588635
0.30436102 0.074878328 0.37244657
-0.25131705 0.08301685 0.3768
-0.24767917 0.081022374 0.37558824
-0.11240727 0.089225046 0.37
-0.10460796 0.084544539 0.37339467
-0.096605435 0.086720221 0.37730655
0.28494427 0.085386269 0.37573072
0.29479834 0.084662229 0.37276661
0.30326888 0.083103873 0.37149283
-0.11427937 0.095032245 0.3726739
-0.10480995 0.095235892 0.37355256
-0.095272213 0.094907597 0.37516525
-0.088222593 0.097028576 0.37537503
0.27918053 0.099158227 0.37850001
0.28447124 0.094971582 0.37370607
0.29172504 0.09471292 0.36999992
-0.11165074 0.10380823 0.37496296
-0.10511596 0.10448133 0.37610805
-0.095401078 0.10267813 0.37670836
-0.088165231 0.10180214 0.37700003
0.26869598 0.1091565 0.37900001
0.27623165 0.10653257 0.37511671
0.28293002 0.10277314 0.37232104
0.25820634 0.11795814 0.37812006
0.26603729 0.11523908 0.37660295
0.27209762 0.11417934 0.37170801
0.24818006 0.12874183 0.37856251
0.25552809 0.12570165 0.37579983
0.26522973 0.12459355 0.3732278
0.27212888 0.12429143 0.37041003
0.21685085 0.13769621 0.37832499
0.2250666 0.13665761 0.37838891
0.23503363 0.13697326 0.3781206
0.24542162 0.13544533 0.37662488
0.25499186 0.13477397 0.37238714
0.26343745 0.13276058 0.37015697
0.2069792 0.14658871 0.37816983
0.21441434 0.14508492 0.37736896
0.22512238 0.1448434 0.37790892
0.23488787 0.14538755 0.37700012
0.2443894 0.14516287 0.37505609
0.25393918 0.14452069 0.37243122
0.20623109 0.15528792 0.37712532
0.21478155 0.15549956 0.37692022
0.22521852 0.15533757 0.37715748
0.23498192 0.15536945 0.37511903
0.24487817 0.155305 0.37398425
0.25185105 0.15287355 0.37386659
0.1977073 0.16632323 0.3778491
0.20533432 0.16520444 0.37545505
0.21483169 0.16478896 0.37292865
0.22516052 0.16489516 0.37321484
0.2348659 0.16523856 0.37234786
0.24422413 0.16457856 0.37158474
0.17894162 0.17648175 0.37900001
0.18531178 0.17646281 0.37643349
0.19500428 0.1747445 0.37365526
0.20509279 0.17471859 0.37237316
0.21487743 0.17525868 0.37073505
0.22496343 0.17477615 0.37107041
0.23482563 0.17501642 0.37042344
0.24171342 0.17372112 0.37054843
0.1760086 0.18591918 0.37634903
0.18518183 0.18477514 0.37415275
0.19476782 0.18486099 0.3706249
0.20501731 0.18481362 0.37025416
0.21497591 0.18496099 0.37002927
0.22452541 0.18387544 0.3700003
0.2319093 0.18325533 0.36999992
0.16680671 0.19662526 0.37643597
0.17429934 0.19426334 0.37323356
0.18504885 0.19254963 0.37220004
0.19412662 0.19220321 0.37043753
0.20499916 0.19085288 0.36999992
0.21511376 0.19085288 0.36999995
0.2204119 0.19085288 0.37
0.13935228 0.20774716 0.37899998
0.14525868 0.20613697 0.37750527
0.15529351 0.20651002 0.37613025
0.1648104 0.20506077 0.37400687
0.17348009 0.20505334 0.37174407
0.13574146 0.21526961 0.37869561
0.14512189 0.21506262 0.37587118
0.15473665 0.2146548 0.37164524
0.16500922 0.21077043 0.37035477
0.17257315 0.21077757 0.37031242
0.12907386 0.22608386 0.37899998
0.13487121 0.22493201 0.37727588
0.14496468 0.22483423 0.37459666
0.15439218 0.22468521 0.37161669
0.12907386 0.23200423 0.37900001
0.13388899 0.23122838 0.37666672
0.14340796 0.23048279 0.3746154
0.089085624 -0.24042079 0.38100001
0.094789416 -0.2405546 0.382
0.10419395 -0.24050438 0.381625
0.11487595 -0.24042079 0.38100001
0.1254243 -0.24129821 0.38373071
0.13505886 -0.24152265 0.38433325
0.14548931 -0.24209598 0.38676924
0.15526672 -0.24344347 0.38899997
0.16539432 -0.24344349 0.38899997
0.17501558 -0.24344349 0.38899997
0.18058579 -0.24344346 0.389
0.016987214 -0.23098232 0.38088006
0.025105769 -0.23099549 0.38099998
0.035484906 -0.23127311 0.38128263
0.045042794 -0.23149678 0.38183323
0.055306055 -0.23158064 0.3822923
0.065124027 -0.23270078 0.38437614
0.075034373 -0.23311508 0.38445547
0.085339077 -0.23387334 0.38435134
0.094988741 -0.23502357 0.38511634
0.10509773 -0.23508263 0.38472459
0.11492123 -0.23498009 0.3843869
0.12465253 -0.23500527 0.38562495
0.13469125 -0.23656146 0.38647297
0.14277233 -0.23799038 0.38771427
-0.061032034 -0.22000311 0.38000003
-0.055096041 -0.2200031 0.38000005
-0.043966003 -0.22032781 0.38056257
-0.036695652 -0.22038792 0.3806667
-0.024396975 -0.22024439 0.38015392
-0.014016063 -0.22185783 0.38258898
-0.0046950392 -0.22268707 0.38449985
0.0055840411 -0.22350954 0.38408047
0.014879964 -0.22554787 0.38454038
0.024938796 -0.22759117 0.38594118
0.034808692 -0.22794919 0.38601336
0.044664748 -0.22870177 0.38685182
0.054492198 -0.22902799 0.38720018
0.061983388 -0.2292925 0.38866669
-0.11471508 -0.21058092 0.38000008
-0.1046641 -0.21065712 0.38093111
-0.094042175 -0.21180002 0.38093874
-0.084577799 -0.21360414 0.38298267
-0.075270571 -0.21556291 0.38421091
-0.06513676 -0.21709031 0.38453054
-0.055039339 -0.21786889 0.38500011
-0.045238078 -0.21809578 0.38525
-0.034601316 -0.21799299 0.38530129
-0.024805268 -0.21788768 0.38495594
-0.016485956 -0.21837012 0.38656533
-0.15269373 -0.20137627 0.38016674
-0.1443989 -0.20134245 0.38154545
-0.13469844 -0.20197143 0.38365856
-0.12460314 -0.20348956 0.3839018
-0.11532657 -0.20666602 0.3843534
-0.10510029 -0.20799406 0.38598749
-0.095061742 -0.20795612 0.38612488
-0.087282173 -0.20856546 0.38691893
-0.22207555 -0.1950241 0.38215911
-0.21938284 -0.1977587 0.38071433
-0.15116052 -0.19924603 0.3806667
-0.14564429 -0.19910648 0.38492164
-0.13595957 -0.19974208 0.38814285
-0.12881355 -0.19989462 0.38900003
-0.22130238 -0.18612534 0.38415152
-0.21932158 -0.18273529 0.38659096
-0.2160859 -0.17476125 0.38474134
-0.21193178 -0.16609842 0.38380849
-0.20903353 -0.16183877 0.38625002
-0.20575519 -0.15514167 0.38431248
-0.20114407 -0.14577624 0.38264996
-0.19824578 -0.14253645 0.3865
-0.20224857 -0.13331051 0.38327941
-0.19781193 -0.13519458 0.38697293
-0.20444135 -0.12520435 0.38476795
-0.1981871 -0.12873895 0.3888889
-0.20488314 -0.11499029 0.38449997
-0.21095026 -0.1014424 0.38060004
-0.20578 -0.10480285 0.38426888
-0.21236192 -0.093910582 0.38223991
-0.20745888 -0.095794924 0.38625327
-0.21407221 -0.0868809 0.383977
-0.20854935 -0.085633144 0.38872001
-0.20361516 -0.076442152 0.38825005
-0.19414425 -0.072854146 0.38585714
-0.18909203 -0.070080236 0.38800001
-0.19064026 -0.069807842 0.38100001
-0.18711863 -0.067345768 0.38338098
-0.17365775 -0.060974147 0.38366666
-0.17139329 -0.055009887 0.38257143
-0.16878827 -0.052456696 0.3858
-0.17079987 -0.045008611 0.38099998
-0.16803284 -0.045026526 0.3859565
-0.17143075 -0.033761732 0.38218749
-0.16825101 -0.036048558 0.38650948
-0.28072813 -0.024686489 0.38900003
-0.27462029 -0.026250005 0.38588092
-0.26507214 -0.026427817 0.38471437
-0.25522289 -0.026113575 0.384238
-0.24476466 -0.025659284 0.38400006
-0.23518854 -0.025400274 0.38365966
-0.224985 -0.024773486 0.38344735
-0.21507615 -0.024739597 0.38343906
-0.20448564 -0.023944722 0.38475603
-0.19500503 -0.02352351 0.38473991
-0.18441816 -0.024323707 0.38394362
-0.17511952 -0.026167985 0.38508791
-0.16961154 -0.029206337 0.38850003
-0.28058374 -0.016219236 0.38833335
-0.27422673 -0.014894697 0.38599998
-0.26502344 -0.013528651 0.38427445
-0.25597084 -0.011878661 0.3847
-0.25220814 -0.0055563934 0.38344738
-0.24866189 -0.0018341651 0.38662967
-0.25070801 0.00061851245 0.38033333
-0.24503821 0.0051399833 0.38451999
-0.24218461 0.014990428 0.38351214
-0.23959836 0.015783386 0.38799998
0.32112771 0.01979848 0.38750002
-0.27225447 0.029308606 0.38000003
-0.26186645 0.029308606 0.38000003
-0.25400832 0.028962292 0.38050005
-0.24398032 0.025654739 0.38403887
-0.23957872 0.02371661 0.38805002
0.31634617 0.026754068 0.38694939
0.32057694 0.021812491 0.38744447
-0.27384141 0.035596751 0.38643542
-0.26512432 0.034528933 0.38539079
-0.25498936 0.033767316 0.38545132
-0.24774575 0.031344306 0.38750002
0.29881209 0.036119137 0.38862965
0.30522209 0.035671365 0.38555717
0.31310317 0.034178495 0.38261446
-0.27465159 0.040636785 0.38899997
-0.26705587 0.041143164 0.38899997
-0.23825225 0.048945494 0.38214284
0.29802033 0.045760524 0.38604936
0.30467957 0.044622518 0.3821322
0.31241277 0.044265833 0.38070369
-0.23683721 0.055523898 0.38392472
-0.13384274 0.057061769 0.38161904
-0.12492964 0.05793374 0.38207144
-0.11562515 0.058070652 0.38182348
-0.10456266 0.059977908 0.38000005
0.28880322 0.058510624 0.38764709
0.29488936 0.055210825 0.38366899
0.30403838 0.053067066 0.38071817
0.31046224 0.050084583 0.38000003
-0.23494841 0.064848013 0.38374794
-0.22505012 0.066436857 0.38575011
-0.21900032 0.06552133 0.38575003
-0.12121058 0.060716379 0.38050005
-0.11436439 0.064281933 0.38101161
-0.10510979 0.065271907 0.3819887
-0.097988419 0.06647937 0.3832162
0.27686116 0.068657696 0.38815793
0.28593343 0.0656965 0.38577101
0.2928164 0.063618958 0.38179407
-0.24140705 0.079374403 0.38050005
-0.23516041 0.074868746 0.38241807
-0.22504532 0.074909993 0.38299972
-0.218859 0.073690891 0.38209093
-0.11245053 0.072680011 0.38169697
-0.10489845 0.074897833 0.38217634
-0.097472653 0.075634345 0.38476393
0.2682429 0.077527002 0.38883331
0.27489173 0.074976996 0.38610309
0.28401816 0.074220613 0.38224119
-0.26405686 0.086933509 0.38790911
-0.2535913 0.085651003 0.384
-0.24443817 0.083273053 0.3850233
-0.23444316 0.084204733 0.38593853
-0.22586362 0.083286174 0.38428843
-0.219561 0.080892846 0.38300002
-0.10128984 0.081425346 0.38025004
-0.093509756 0.083606862 0.38266668
-0.089159369 0.087430932 0.38557893
0.24559934 0.088219099 0.38855565
0.25494471 0.088169262 0.38847366
0.26643592 0.085865214 0.38801113
0.27509591 0.084999621 0.38367102
0.28077686 0.082310691 0.38080004
-0.091221519 0.091832422 0.38081825
-0.087980792 0.093802519 0.38475001
0.2276158 0.099063106 0.3882308
0.23620905 0.097038187 0.38680512
0.24480349 0.094811611 0.38520676
0.25499666 0.094839633 0.38499981
0.26515603 0.094728604 0.38479316
0.27540356 0.094905987 0.38229996
-0.10348655 0.109317 0.38018188
-0.094640605 0.10762696 0.38237143
-0.088006668 0.10608346 0.38392857
0.21874401 0.10817705 0.38860002
0.22504422 0.10513734 0.38627583
0.2348679 0.10505237 0.38437155
0.24515137 0.10505527 0.38385013
0.2550495 0.10500131 0.38324523
0.26507661 0.10487331 0.3817769
0.27378955 0.10313446 0.38094112
-0.10291923 0.11183754 0.38366669
-0.095914073 0.1118018 0.38722727
0.20567416 0.11763275 0.38616917
0.2154673 0.11550298 0.38571838
0.22489181 0.11525535 0.3844918
0.23477602 0.11520217 0.3830502
0.24481009 0.11510018 0.38239625
0.2547082 0.1146558 0.38197333
0.26196745 0.1118107 0.3808077
0.19937083 0.12652265 0.38847366
0.2043608 0.12488066 0.38452017
0.21469471 0.12476709 0.38299972
0.22482628 0.12516738 0.38171676
0.23504943 0.12497174 0.38060006
0.24478091 0.1247685 0.38063157
0.25222173 0.12262896 0.38067856
0.19852884 0.13578257 0.38659614
0.2046643 0.13492671 0.38290897
0.21433379 0.13413519 0.38179198
0.22463346 0.13170271 0.38045454
0.23477833 0.13170451 0.38000008
0.24208839 0.1314297 0.38000008
0.19718458 0.14552002 0.38536787
0.20377834 0.14454857 0.38170522
0.21103434 0.14011382 0.38000003
0.18892021 0.15899503 0.38814288
0.19506802 0.15748313 0.38547629
0.20269263 0.15783596 0.38325647
0.17709009 0.16714923 0.38748899
0.18524057 0.16627596 0.3860589
0.1936958 0.16437168 0.38308921
0.20172064 0.16064613 0.38042858
0.16533165 0.17609227 0.38643876
0.17458118 0.17420055 0.38281876
0.18482654 0.1716482 0.38114277
0.19237605 0.17152062 0.38094741
0.15888202 0.18760316 0.38864285
0.16517486 0.18515535 0.38506106
0.17298712 0.18325059 0.38144991
0.13714835 0.1985334 0.38712123
0.14536826 0.19779617 0.38640276
0.15529697 0.19537319 0.38577375
0.16380818 0.19417186 0.38317114
0.12806489 0.20828399 0.38482055
0.13472867 0.20467784 0.38291419
0.14475273 0.20146537 0.38160008
0.15509409 0.2013035 0.38159993
0.16069306 0.20097707 0.3806667
0.097749792 0.21776554 0.38385722
0.10532798 0.21619968 0.38516057
0.11505852 0.215565 0.38517508
0.1247449 0.2147947 0.3832069
0.13190755 0.21308695 0.38000008
0.097425885 0.22418818 0.3823784
0.10548982 0.22457734 0.38217342
0.11522911 0.22497386 0.38106561
0.1248719 0.22503509 0.38075286
0.13040377 0.22024973 0.38000003
0.086239412 0.23407735 0.38795942
0.095105521 0.23453657 0.38768849
0.1052267 0.23410775 0.3852118
0.11518711 0.23236609 0.38039997
0.12446777 0.23212174 0.38000005
0.22822727 -0.25051719 0.39699998
0.23520865 -0.25033712 0.39744443
0.24507239 -0.25031465 0.39749995
0.25516617 -0.25030398 0.39752626
0.26499048 -0.25032529 0.39747369
0.27249709 -0.25031459 0.39750004
0.14906594 -0.2405155 0.39000002
0.15465046 -0.24051547 0.38999996
0.16480413 -0.24051552 0.38999996
0.17495781 -0.24051547 0.38999996
0.18578838 -0.2428847 0.38999993
0.19494808 -0.24314591 0.39024994
0.20514844 -0.24403153 0.39238888
0.21484478 -0.24437118 0.39313489
0.22507863 -0.24491137 0.39581802
0.23489812 -0.244919 0.39787832
0.24482441 -0.24455293 0.39809188
0.25407577 -0.24557044 0.39832377
0.26517013 -0.24843286 0.39868978
0.27610719 -0.24804384 0.39758
0.28528467 -0.24593538 0.39746529
0.29501656 -0.24579228 0.39749002
0.30473858 -0.24569029 0.39702803
0.3148371 -0.24599762 0.39567062
0.32395604 -0.24517727 0.39554554
0.069249235 -0.23072751 0.39033332
0.074791446 -0.23042706 0.39103445
0.084807031 -0.23044176 0.391
0.094986722 -0.23044178 0.391
0.1049988 -0.23045656 0.39096543
0.11500596 -0.23044176 0.39099991
0.12523533 -0.23058668 0.39096776
0.13545989 -0.23171471 0.39239997
0.14543664 -0.2332153 0.39224747
0.15508017 -0.23457156 0.39306512
0.16501087 -0.23535739 0.39454249
0.17492384 -0.2362247 0.39463466
0.18499687 -0.23702314 0.39472172
0.19483639 -0.2372281 0.39468092
0.20492496 -0.23771976 0.39592314
0.21486837 -0.23789293 0.39594737
0.22468336 -0.23757371 0.39712974
0.23422438 -0.23818558 0.39825714
-0.0027349666 -0.22048981 0.39049998
0.0053983862 -0.22048981 0.39049992
0.016072787 -0.2212074 0.39123338
0.025383037 -0.22262816 0.39324984
0.034966171 -0.22331804 0.39409608
0.04491929 -0.22506692 0.39447984
0.055009201 -0.22581127 0.39449462
0.064921021 -0.2264443 0.39428133
0.074756019 -0.22770157 0.3957808
0.085006967 -0.22823191 0.39598528
0.094945043 -0.22822514 0.39599985
0.10496254 -0.2282249 0.39599997
0.1149774 -0.22825216 0.3959403
0.12491852 -0.2282182 0.39601475
0.13415222 -0.22878706 0.39734212
0.14486946 -0.22938636 0.39800003
0.15384549 -0.22947466 0.39823818
0.16185512 -0.22996448 0.39900002
0.29741839 -0.22425108 0.39900002
0.30001536 -0.22477049 0.39900002
-0.080815956 -0.21068047 0.39116669
-0.074607059 -0.21172915 0.39322534
-0.064999901 -0.21286526 0.39447945
-0.054986048 -0.21349169 0.39448449
-0.045026205 -0.21397462 0.39451525
-0.034892343 -0.21354741 0.39453462
-0.025085751 -0.2130757 0.39442328
-0.014763551 -0.21378192 0.39415607
-0.0050325179 -0.21540304 0.39482829
0.0047279461 -0.2169269 0.39543462
0.014304467 -0.21821435 0.39583784
0.023859849 -0.21921046 0.39785188
0.033044063 -0.21957651 0.39900002
-0.223529 -0.20076987 0.39557144
-0.12266974 -0.20098013 0.39088237
-0.11431846 -0.20267604 0.39288726
-0.10490963 -0.20315851 0.39396766
-0.09502624 -0.20322141 0.3944242
-0.085016489 -0.20595311 0.39454994
-0.076466732 -0.20888402 0.39770004
-0.22271211 -0.19557318 0.39398077
-0.21756728 -0.19396625 0.39564997
-0.14376031 -0.19760278 0.39296287
-0.13470483 -0.19590014 0.39468324
-0.12507609 -0.19546486 0.39578658
-0.11558501 -0.19581863 0.39720738
-0.10661654 -0.19919421 0.39809093
-0.099402785 -0.19983931 0.39900002
-0.22080982 -0.18897374 0.39050001
-0.21585672 -0.18522201 0.3944124
-0.13280252 -0.18773611 0.39700004
-0.12561746 -0.18781771 0.39832348
-0.1166518 -0.18866993 0.39866674
-0.21293251 -0.17528495 0.39406249
-0.20974725 -0.17019725 0.39650002
-0.21053177 -0.16834141 0.39177778
-0.20785642 -0.16447422 0.39480001
-0.20295106 -0.15561414 0.39430767
-0.19882683 -0.15173824 0.39718187
-0.20056093 -0.14921729 0.39066669
-0.19598658 -0.14496689 0.39415517
-0.19274791 -0.13491644 0.39328566
-0.18953983 -0.13318843 0.39850006
-0.20093423 -0.12279596 0.39091998
-0.1959383 -0.12581027 0.39473575
-0.18963347 -0.12933052 0.39833334
-0.20125228 -0.11488839 0.3919796
-0.19843477 -0.11532692 0.39705673
-0.20147771 -0.10473644 0.39223081
-0.19865178 -0.10498496 0.39697966
-0.2029897 -0.094675764 0.39191252
-0.19864117 -0.094960667 0.39700004
-0.20358139 -0.085151486 0.39157566
-0.19858645 -0.085037954 0.39702091
-0.2034899 -0.078222141 0.39064288
-0.1946325 -0.076087818 0.39454719
-0.18963969 -0.070700742 0.39333335
-0.18884122 -0.0687958 0.39416668
-0.17130154 -0.056050751 0.39355555
-0.16498861 -0.052713439 0.39230239
-0.15853672 -0.051269554 0.39266667
-0.16366431 -0.045277808 0.39406246
-0.15841974 -0.048968446 0.39627275
-0.1650672 -0.034669399 0.39436704
-0.28243411 -0.022207204 0.39152944
-0.27509454 -0.022267699 0.39125648
-0.2650125 -0.022235811 0.39176187
-0.2548649 -0.021844251 0.39411527
-0.24540199 -0.021770963 0.3949286
-0.23488396 -0.021432914 0.39452639
-0.22498277 -0.021441847 0.39446163
-0.21532759 -0.021378402 0.39378786
-0.20544741 -0.021262964 0.39125001
-0.19473778 -0.020699089 0.39020005
-0.1849899 -0.020688482 0.39000005
-0.17317505 -0.022174338 0.39176321
-0.16734254 -0.025416767 0.39531651
0.33117932 -0.024282305 0.39900002
-0.28158808 -0.018973991 0.39125001
-0.27473968 -0.018530935 0.39118186
-0.26443684 -0.018208228 0.39244235
-0.25607696 -0.015073095 0.39506453
-0.21107367 -0.019088309 0.39900002
-0.20469272 -0.019152904 0.39610007
-0.19498602 -0.018419057 0.39502701
-0.18496296 -0.018221688 0.39519516
-0.17524202 -0.018159805 0.39600006
-0.16900232 -0.019088309 0.39900002
0.19663726 -0.012841738 0.39856413
0.20192054 -0.011547832 0.39766666
0.31933704 -0.011608958 0.39900002
0.32573915 -0.012984881 0.39796093
0.33014056 -0.016491313 0.39900002
-0.25139269 -0.0082155941 0.39407408
-0.2465508 -0.0032259333 0.39512119
0.18857759 -0.001715132 0.39827785
0.19530988 -0.0051174159 0.39797917
0.20333777 -0.0057961461 0.39760375
0.30884516 -0.00038992998 0.39900002
0.31702194 -0.0035761278 0.3985863
0.32377711 -0.0051352503 0.3958835
-0.24234304 0.0039641368 0.39384058
-0.23905937 0.0088714296 0.39521053
0.17951471 0.0099980589 0.39900002
0.18547584 0.0056727412 0.39741397
0.1949745 0.005002242 0.39779505
0.20049843 0.0035575058 0.39900002
0.30584413 0.0062129507 0.39821014
0.31524843 0.0053094272 0.39667204
0.3229768 0.0049051535 0.39365807
-0.23713277 0.015208906 0.39436659
0.1751342 0.016019667 0.3970001
0.1847125 0.014840061 0.39564061
0.19291174 0.014941195 0.39742103
0.29769599 0.018045718 0.39893755
0.3049953 0.015347946 0.3970947
0.314915 0.015333095 0.39319465
0.32205567 0.014709393 0.39169577
-0.24134278 0.029064517 0.39000002
-0.23703732 0.024961824 0.39464992
0.17513315 0.024042532 0.39659378
0.18476266 0.02505409 0.39541695
0.19194573 0.024261486 0.39712003
0.28941923 0.028972317 0.3987143
0.29566175 0.025657747 0.39741984
0.30488524 0.024529517 0.39388034
0.31305397 0.023652751 0.39054099
0.32066301 0.020941578 0.39000002
-0.26215783 0.039218191 0.39000002
-0.25289232 0.038154762 0.39259464
-0.24492012 0.034779266 0.39442864
-0.23793967 0.032291334 0.39658827
0.18617466 0.031130159 0.39785722
0.19112824 0.031094594 0.39866671
0.27610582 0.038672153 0.39763334
0.28638682 0.036435734 0.39770845
0.29459628 0.034759082 0.39392477
0.30406111 0.030456392 0.39023528
-0.26262644 0.042908248 0.39308828
-0.25653443 0.041852009 0.39515793
-0.24488306 0.049442369 0.39600003
0.26977476 0.046240598 0.39899999
0.27488849 0.045108303 0.39611021
0.28506321 0.045271404 0.39361683
0.29383633 0.044523448 0.39174989
-0.24156275 0.050813325 0.39570001
-0.23492561 0.056076832 0.39476925
-0.2257278 0.059311785 0.39793751
-0.2195942 0.059117269 0.39750004
0.26686805 0.056099422 0.39777473
0.27503392 0.054751638 0.39450392
0.28484392 0.054930557 0.39139608
0.29209188 0.052390676 0.39052376
-0.23155586 0.060976177 0.39235711
-0.2259873 0.061648499 0.39413509
-0.21979654 0.060441315 0.39600003
0.25885734 0.066831999 0.39856529
0.26485038 0.065130167 0.39518732
0.27458888 0.064564876 0.39249006
0.2824074 0.062756881 0.39096975
-0.094772011 0.076041892 0.39403337
0.23976503 0.079597585 0.39900002
0.24616484 0.078609645 0.398
0.25610152 0.075652778 0.39660949
0.26427534 0.074403241 0.39199993
0.27091002 0.070694581 0.39000002
-0.25366539 0.088398367 0.39337501
-0.24502935 0.087990195 0.39252639
-0.23816545 0.088441096 0.39085716
-0.091467537 0.082075596 0.39463159
-0.088259809 0.087306701 0.39522731
0.21823359 0.08838015 0.39899999
0.22545438 0.086776152 0.39900014
0.23499872 0.085176453 0.3960377
0.24433702 0.083670355 0.39318943
0.25498071 0.083376125 0.39278877
0.26243016 0.08288949 0.39108515
-0.26000509 0.090339981 0.39600003
-0.25267017 0.090853274 0.39825001
-0.24459167 0.092229083 0.39717397
-0.23873501 0.091797456 0.39450002
-0.08627627 0.093709573 0.39443335
0.21827209 0.095950283 0.39812511
0.22496718 0.095497996 0.39588314
0.23412532 0.092998952 0.3933636
0.24024829 0.09060961 0.39050001
-0.088246718 0.10955873 0.39100003
0.19612724 0.10767806 0.39760014
0.20518923 0.10683625 0.39730671
0.21549848 0.1053783 0.39479506
0.22152957 0.10206606 0.39113048
-0.10087067 0.11765812 0.39220002
-0.094116338 0.11629169 0.3936792
-0.089214556 0.11383551 0.39491668
0.18736146 0.11703204 0.39841023
0.19505027 0.11524151 0.39649099
0.2040804 0.11397031 0.3926807
0.21298967 0.11172079 0.39145464
-0.11097941 0.12270872 0.39400002
-0.10524743 0.12259228 0.39592311
-0.095410019 0.12169147 0.398
0.18601176 0.12516098 0.39662093
0.19479741 0.1245761 0.39270613
0.16821235 0.13880683 0.39818183
0.17529446 0.13719963 0.39686367
0.18499427 0.13512197 0.39534751
0.19387822 0.13480972 0.39169902
0.16670243 0.1456884 0.3976087
0.17506853 0.14517568 0.39530924
0.1848744 0.1448442 0.39256331
0.19317968 0.14479864 0.39143088
0.16630223 0.15497912 0.39709079
0.17544237 0.15502799 0.39408273
0.18499793 0.15518355 0.39198998
0.19338402 0.15428761 0.39152843
0.158402 0.16892904 0.39844444
0.16569883 0.16567799 0.39694276
0.17419659 0.16464746 0.39322546
0.18393712 0.1616068 0.39089653
0.14813489 0.17799707 0.39804557
0.15541436 0.17488322 0.39503175
0.16398504 0.17212549 0.39213115
0.17130439 0.17091127 0.39139998
0.13843493 0.18772711 0.39899999
0.14534189 0.18566208 0.3972154
0.15480977 0.18496203 0.39355287
0.16023499 0.18238498 0.39000002
0.12871109 0.19799329 0.39723533
0.13487111 0.19515871 0.39450854
0.14439969 0.19317442 0.39310533
0.15284188 0.19184048 0.39079311
0.099527188 0.20217584 0.39900002
0.10581113 0.20626827 0.39767879
0.11493748 0.20745894 0.39601055
0.12531699 0.20582458 0.39511701
0.1312501 0.20233974 0.391381
0.10909863 0.21057655 0.39050001
0.11519863 0.21057656 0.39049992
0.121807 0.21057655 0.39050004
0.25741208 -0.242654 0.40000007
0.26496223 -0.2440007 0.4006713
0.27489024 -0.24386995 0.40075651
0.28312632 -0.24175315 0.40034783
0.29503959 -0.24095485 0.40000004
0.3065207 -0.24133404 0.40100002
0.31449008 -0.24345864 0.4042286
0.32341602 -0.24468055 0.40354839
0.16749957 -0.23061952 0.40078571
0.17543226 -0.23142754 0.40154552
0.18544942 -0.23249328 0.40312678
0.1949212 -0.23265842 0.40363535
0.20498511 -0.23306961 0.40393028
0.21481156 -0.23358504 0.40456718
0.22494651 -0.23364912 0.40447924
0.23519474 -0.2339455 0.40426758
0.24511248 -0.23539479 0.40401599
0.25495327 -0.23574826 0.40442544
0.26490366 -0.23560092 0.40501636
0.27500227 -0.23552372 0.40510336
0.28504047 -0.23577785 0.40471131
0.29445285 -0.235201 0.40351066
0.30351424 -0.23572075 0.40233836
0.31026921 -0.23775418 0.40699998
0.038406745 -0.22053823 0.40075001
0.045855056 -0.22143707 0.4021914
0.054957323 -0.2217529 0.40302977
0.065241031 -0.22196999 0.40321141
0.075188771 -0.22336718 0.40428594
0.084992543 -0.22417235 0.40447894
0.094997585 -0.22415103 0.40452087
0.10505304 -0.22418021 0.40446335
0.11500552 -0.22418758 0.40444666
0.12477165 -0.22446056 0.40421855
0.13532875 -0.22589675 0.40456799
0.1449655 -0.22625989 0.40451556
0.15502129 -0.22646728 0.40445751
0.16460365 -0.22739625 0.4050855
0.17503589 -0.22837961 0.40650892
0.18479954 -0.22836234 0.40763423
0.19522919 -0.22893976 0.40835729
0.20433789 -0.22915196 0.40840912
0.21116708 -0.22933899 0.40900001
0.29536372 -0.22779906 0.40383041
0.30244693 -0.22796254 0.40050006
-0.062760495 -0.21049562 0.4005
-0.054940205 -0.21049562 0.4005
-0.044218168 -0.21084742 0.40127584
-0.037153792 -0.21075696 0.40082356
-0.0032228045 -0.2107048 0.40090004
0.0056009563 -0.21205673 0.4031077
0.015208597 -0.2131757 0.40429732
0.025033141 -0.2143482 0.40453392
0.034465875 -0.21692134 0.40479574
0.044219818 -0.21844085 0.40681246
0.055034023 -0.21921651 0.40800002
0.06426093 -0.21923809 0.40804008
0.07167384 -0.21975549 0.40900001
-0.093458869 -0.20047218 0.40045455
-0.084330551 -0.20212871 0.40305966
-0.074762411 -0.2046482 0.40408462
-0.065617658 -0.20689061 0.40535307
-0.054964598 -0.20780294 0.40555269
-0.045283925 -0.20818204 0.40593857
-0.034448169 -0.20730242 0.40532941
-0.024958059 -0.20634274 0.40466982
-0.015179268 -0.20691268 0.40447962
-0.0053683678 -0.20777968 0.40540013
0.0040478865 -0.20894065 0.40764281
0.014705224 -0.20910715 0.40899998
0.02215906 -0.20910713 0.40900001
-0.2110768 -0.19034444 0.40533337
-0.2094916 -0.19066098 0.40600002
-0.11148919 -0.19311978 0.40000007
-0.10500687 -0.19470829 0.40396896
-0.09529388 -0.19751759 0.40519345
-0.085714556 -0.19830006 0.40765965
-0.075705364 -0.1985781 0.40812126
-0.21226305 -0.18537135 0.40425718
-0.20881951 -0.18521032 0.40820003
-0.13149554 -0.18379155 0.40225002
-0.12477188 -0.18408018 0.4041937
-0.11497657 -0.18628587 0.40423417
-0.10743552 -0.18914077 0.4078235
-0.21086867 -0.17673357 0.40216663
-0.20788375 -0.17431487 0.40608627
-0.12485887 -0.17889851 0.40750003
-0.20464264 -0.16506512 0.40450796
-0.20118874 -0.15825942 0.40176928
-0.19778271 -0.15421826 0.40510002
-0.19319996 -0.14521505 0.40434694
-0.18980877 -0.14061314 0.40799999
-0.19071741 -0.13910376 0.4012
-0.18700036 -0.13399692 0.40490767
-0.19280584 -0.12350913 0.40331432
-0.18691704 -0.12658855 0.40626401
-0.19347633 -0.11479975 0.40374261
-0.18889524 -0.11522155 0.40854996
-0.19355947 -0.1049296 0.40376192
-0.18899435 -0.10489815 0.40847367
-0.19387832 -0.095068291 0.40406805
-0.18943712 -0.09810283 0.40879998
-0.1942676 -0.085090473 0.40424472
-0.19218498 -0.07584691 0.40462792
-0.1910598 -0.068757437 0.40474999
-0.17696488 -0.060030401 0.40900001
-0.17480046 -0.05824732 0.40400004
0.3349089 -0.050868008 0.40871426
-0.16142075 -0.042965431 0.40362856
-0.15854087 -0.047338009 0.40392858
0.32691714 -0.043580133 0.40724146
0.3332859 -0.045296412 0.40585294
-0.16172557 -0.034949496 0.40416083
-0.15992753 -0.034474388 0.40899998
0.30943152 -0.032384429 0.40859997
0.31545204 -0.034439728 0.40809438
0.32484916 -0.035334244 0.40629464
0.33213401 -0.035129454 0.40337732
-0.16260703 -0.024719322 0.40354443
-0.15992753 -0.024890883 0.40899998
0.17528775 -0.02158984 0.40700001
0.18328701 -0.021005429 0.40462509
0.30868214 -0.024377117 0.40818754
0.31457871 -0.024422282 0.40550482
0.32501492 -0.025218066 0.40450472
0.33174211 -0.02541426 0.40328267
-0.25333667 -0.015210034 0.40410012
-0.24538775 -0.01653469 0.40616369
-0.23506708 -0.017759971 0.40502653
-0.22490844 -0.017750168 0.40507704
-0.21479082 -0.017359115 0.40466669
-0.20479487 -0.01590593 0.40435478
-0.19448721 -0.01434669 0.40410814
-0.18500848 -0.013546659 0.40450001
-0.17446171 -0.013582662 0.40444639
-0.16595101 -0.016620619 0.40546387
-0.15992753 -0.019034296 0.40900001
0.17573701 -0.015236681 0.40711123
0.18475655 -0.015001059 0.40325493
0.19227651 -0.015012214 0.40102699
0.29901588 -0.011048041 0.40900001
0.30616492 -0.014414693 0.40698889
0.31439206 -0.015155233 0.40221632
0.3248634 -0.017196123 0.40098119
0.33117157 -0.018820908 0.40066668
-0.25061032 -0.0096428478 0.40216669
-0.24418554 -0.0057351929 0.40415555
-0.23893657 -0.0023634119 0.40754995
0.1687025 -0.0017544427 0.40872726
0.17486899 -0.0050976826 0.40683961
0.18436275 -0.0054900325 0.40249538
0.19055222 -0.0080278581 0.40000001
0.20659693 -0.00178449 0.40183333
0.2116995 -0.00039970267 0.40900001
0.29731616 -0.0045237052 0.40790924
0.30517611 -0.005201438 0.40366146
0.31356126 -0.0065804347 0.40049183
-0.24066524 0.0027375298 0.40100002
-0.23796131 0.0052382066 0.40531519
0.15799423 0.0073349886 0.40780953
0.16548662 0.0052560517 0.40730125
0.17515914 0.0048900936 0.40347221
0.18177398 0.0019560303 0.40112501
0.19975124 0.007940311 0.40000001
0.20443493 0.0049690758 0.40272221
0.21037716 0.0022596163 0.40850002
0.28744343 0.007386663 0.40850005
0.29591006 0.0052450476 0.40668213
0.3022216 0.0033366543 0.40213206
-0.23326753 0.01501502 0.40454745
-0.22914174 0.019832142 0.40900001
0.14844835 0.018980274 0.40900001
0.15557392 0.015614581 0.4055455
0.16518635 0.01484199 0.4030728
0.1735473 0.011232012 0.40106669
0.19812544 0.015011742 0.40136841
0.20284572 0.014069965 0.40600002
0.28688884 0.015290359 0.40788186
0.29408732 0.014249319 0.40279868
0.30076727 0.010543818 0.40000001
-0.23244499 0.025040966 0.40438721
-0.22914174 0.025156312 0.40899998
0.14754325 0.022228017 0.40900001
0.15617448 0.02248108 0.40565854
0.16543962 0.024433637 0.40339133
0.17270741 0.02847619 0.40147617
0.19676229 0.025233354 0.40209526
0.20150095 0.023901837 0.40736368
0.27792862 0.027777011 0.40808699
0.28594533 0.025311874 0.40509617
0.29142287 0.02263199 0.40045834
-0.24190162 0.038581058 0.40063637
-0.23405166 0.03521163 0.40462619
-0.22914173 0.033674981 0.40899998
0.16943052 0.030443219 0.40850002
0.17577834 0.032392684 0.40478271
0.18473807 0.034705449 0.4037925
0.19409963 0.034247007 0.405
0.26629207 0.038002778 0.40643147
0.27466992 0.034246705 0.40394127
0.28333676 0.03270793 0.40129411
-0.2547096 0.04565258 0.40339726
-0.24457856 0.045260545 0.40387407
-0.23781903 0.04311597 0.40705562
0.25815424 0.047735754 0.40773079
0.26490265 0.045000438 0.4032993
0.27056661 0.040744483 0.40000001
-0.25368771 0.050092369 0.40399998
-0.24102598 0.050637987 0.40277779
-0.23547155 0.054377396 0.40449095
-0.22503053 0.057615928 0.40270364
-0.21896037 0.056263659 0.40300003
0.24881585 0.058928583 0.40875003
0.2555244 0.055457629 0.40588042
0.26237738 0.053941432 0.40111113
0.018822737 0.066347674 0.40695465
0.022382241 0.065587521 0.40805709
0.23745979 0.068352729 0.40827274
0.24582559 0.065581843 0.40556648
0.25428027 0.064333856 0.40148011
0.26056916 0.06084355 0.40000001
-0.092462435 0.078489952 0.40207145
-0.087851346 0.079367928 0.40400001
0.017069666 0.075640306 0.40662736
0.022515301 0.074632995 0.40781811
0.19945391 0.079462834 0.40900001
0.20616764 0.078240454 0.40859264
0.21519054 0.077443786 0.40640992
0.22533581 0.076771691 0.4053292
0.23518677 0.075460494 0.40446383
0.24449539 0.074140683 0.40238792
0.25251395 0.072503984 0.40035477
-0.090888254 0.081183441 0.4017143
-0.084789701 0.08481551 0.40329972
-0.078071937 0.086472422 0.40388882
0.0072887847 0.083943881 0.40833327
0.014293139 0.081953347 0.40791884
0.020561811 0.081060097 0.40900001
0.19640791 0.085836671 0.4076429
0.20489609 0.084747881 0.40650034
0.21449237 0.084705859 0.4030354
0.22360404 0.08224719 0.40071425
-0.26236811 0.093565978 0.40550002
-0.25544867 0.094131887 0.40275002
-0.24773672 0.094912276 0.4005
-0.083429165 0.094377764 0.40403768
-0.075535551 0.091615513 0.40533343
-0.068037517 0.091962278 0.40442857
0.18962002 0.095575474 0.4085294
0.19478087 0.095034219 0.40440163
0.20492537 0.094991095 0.40294304
0.2133795 0.094897136 0.40153593
-0.086135119 0.10175133 0.40700001
0.18887544 0.10646597 0.4074375
0.19346945 0.10395346 0.4025825
0.20465939 0.10198729 0.40062496
0.2133718 0.10172818 0.40045005
-0.090491541 0.11113547 0.40800002
-0.086774848 0.11576706 0.40514931
0.17806233 0.11763116 0.40733334
0.18459867 0.11438306 0.40398118
-0.1029336 0.12642395 0.40411767
-0.094309486 0.12648088 0.40397146
-0.087101251 0.1229168 0.40555263
0.16896325 0.12846844 0.40839997
0.17601833 0.12555711 0.40542591
0.18115097 0.12487421 0.40039995
-0.097102337 0.13057487 0.40900001
0.1663575 0.13583198 0.40524453
0.17449121 0.13276558 0.40252116
0.1809777 0.13095608 0.40040001
0.15795471 0.14650828 0.4068667
0.16224365 0.14390945 0.40252933
-0.29782352 0.15932538 0.40900001
0.11876786 0.15999806 0.40800002
0.12172103 0.15826054 0.40899995
0.14993912 0.15719572 0.40900001
0.15570013 0.15505163 0.40693209
0.16131498 0.15509911 0.4014737
-0.2972911 0.16198747 0.40900001
0.1178629 0.16652599 0.40770963
0.1249266 0.16495679 0.40840706
0.13481136 0.16544166 0.40833366
0.14514054 0.16588371 0.40769565
0.15525638 0.16550642 0.40576816
0.1611824 0.16354176 0.40125927
0.11692408 0.17464396 0.4053548
0.12490685 0.17476717 0.40536895
0.13498305 0.17475274 0.40522215
0.14435133 0.17440623 0.40230274
0.15263544 0.17101032 0.40116671
0.1078985 0.1892214 0.40142861
0.11631082 0.18536063 0.40337297
0.12498984 0.18525104 0.40388975
0.13468279 0.18458426 0.40243816
0.14154202 0.18129581 0.40053847
0.099776626 0.19851695 0.40000001
0.10571634 0.19521707 0.40093178
0.11505232 0.19467908 0.40147412
0.12490147 0.19433293 0.40145785
0.13261144 0.19177818 0.40099999
0.10528262 0.2019829 0.40048826
0.11504926 0.20194198 0.40059993
0.12313952 0.20174535 0.40059263
0.33210957 -0.25046402 0.41850001
0.31770998 -0.2435874 0.41240001
0.32473907 -0.24710664 0.41466668
0.33012691 -0.24950998 0.41600001
0.21648684 -0.23096716 0.41000006
0.22502634 -0.23096715 0.41000006
0.235167 -0.23096713 0.41000003
0.24530765 -0.23096715 0.41000006
0.25491464 -0.23096715 0.41000006
0.26505527 -0.23096713 0.41000003
0.27519593 -0.23096715 0.41000006
0.28480282 -0.23096715 0.41000006
0.29067376 -0.23096716 0.41000003
0.07772775 -0.22072086 0.41060004
0.085037582 -0.22080997 0.41103455
0.095030196 -0.22082841 0.41099989
0.10484207 -0.22084738 0.41096425
0.11500122 -0.22081003 0.41103449
0.12571436 -0.22140267 0.41228202
0.13501464 -0.22215354 0.41445327
0.14492357 -0.2219788 0.41382197
0.15501292 -0.22191931 0.41295296
0.16524808 -0.22251561 0.41370499
0.17503054 -0.22388171 0.41444436
0.18496828 -0.2243309 0.41445741
0.19492526 -0.22476377 0.4142679
0.20509577 -0.22548729 0.4144372
0.21505679 -0.22605732 0.41385186
0.22515009 -0.22570831 0.41412884
0.2351267 -0.22566858 0.41385728
0.24503064 -0.2255981 0.41392499
0.2550585 -0.22555391 0.41395891
0.26469022 -0.22511175 0.41287297
0.27470252 -0.22511756 0.41051406
0.28422928 -0.22623536 0.40999988
0.29067376 -0.22829859 0.41000006
0.029187134 -0.21040776 0.41050002
0.035975721 -0.2124147 0.41277966
0.045116942 -0.21435456 0.41448903
0.055043865 -0.21571118 0.41443488
0.064971693 -0.21574564 0.41447821
0.074621819 -0.21714985 0.41493979
0.084967643 -0.21808225 0.41601565
0.094947681 -0.21809928 0.41598457
0.10500251 -0.21808209 0.41601554
0.11498117 -0.21809974 0.41598448
0.12402775 -0.21851073 0.41669765
0.13506037 -0.21967413 0.41900009
0.14642441 -0.219367 0.41829416
0.15505145 -0.21914814 0.41800001
0.16381864 -0.21931008 0.41843754
0.17105904 -0.21967414 0.41900003
0.26520965 -0.21719764 0.41633344
0.27306136 -0.21864304 0.41091308
-0.063642181 -0.20231357 0.41328815
-0.054971181 -0.20272793 0.41449475
-0.044986974 -0.20349984 0.4145
-0.035725914 -0.20248723 0.4132143
-0.02484457 -0.20127572 0.41149998
-0.014620312 -0.20196009 0.41291374
-0.004793264 -0.20273699 0.41427553
0.005222897 -0.20456579 0.41457689
0.014833079 -0.20564179 0.4147217
0.024700923 -0.20655766 0.41453853
0.034001909 -0.20783921 0.41679177
0.04070019 -0.20985632 0.41900003
-0.10118693 -0.19113451 0.41100001
-0.094540261 -0.19256267 0.41316006
-0.085023299 -0.19368453 0.41445678
-0.074806653 -0.19436756 0.4146364
-0.066958711 -0.19747059 0.41600001
-0.03296826 -0.19866435 0.41726926
-0.025146447 -0.19829515 0.41650021
-0.016183734 -0.19874687 0.41744119
-0.0089236908 -0.19925436 0.41850001
-0.20487386 -0.18328941 0.4124265
-0.19926357 -0.18336551 0.41780004
-0.12119681 -0.18091461 0.41227275
-0.1144715 -0.18290453 0.41419446
-0.1050279 -0.18633987 0.41472542
-0.096584342 -0.18827797 0.41738892
-0.20457089 -0.17527609 0.41388524
-0.12253457 -0.17944598 0.41491672
-0.1182837 -0.17997231 0.41800001
0.34496772 -0.17253314 0.41862965
-0.20181561 -0.16640432 0.41377419
-0.19880974 -0.16207063 0.41587502
0.328641 -0.16090865 0.41880003
0.33605838 -0.16338889 0.41793483
0.34343705 -0.16560251 0.41762948
-0.19557083 -0.15506704 0.41433993
0.31780928 -0.15286161 0.41848147
0.32505661 -0.15496194 0.41715193
0.33504471 -0.15523192 0.41598901
0.3415395 -0.15489995 0.41411364
-0.19144641 -0.14676541 0.41381487
-0.18845162 -0.14228705 0.41583335
0.30905396 -0.14004071 0.41900003
0.3159973 -0.14451963 0.41784841
0.32428914 -0.14497732 0.41609114
0.3347294 -0.14528173 0.4160755
0.34278151 -0.14499143 0.41603583
-0.18336502 -0.13545081 0.41364446
-0.1782254 -0.13204429 0.41664708
0.30883777 -0.13463728 0.41877142
0.31488532 -0.13463812 0.41747758
0.3245337 -0.13448077 0.41672456
0.3343488 -0.13444072 0.41745216
0.34396175 -0.13458638 0.41900012
-0.18339089 -0.12348532 0.41308573
-0.17808761 -0.12686782 0.41526094
0.34777981 -0.12695029 0.41900006
-0.18527073 -0.11495296 0.4144623
-0.18531287 -0.10496932 0.41448909
-0.19055344 -0.092100143 0.41075003
-0.18663222 -0.095222294 0.4149439
0.34694976 -0.091278665 0.41800001
-0.19071738 -0.084632948 0.41134483
-0.18759809 -0.085403591 0.41618466
0.31598872 -0.083320938 0.41782594
0.32462877 -0.082786277 0.41776311
0.33509481 -0.082775414 0.41828942
0.34371904 -0.083880678 0.41817948
-0.1909737 -0.074762464 0.4133659
-0.18898137 -0.075683109 0.41779318
0.31594649 -0.074999668 0.41675833
0.32472965 -0.074528277 0.41367036
0.33497196 -0.075192362 0.41321924
0.34205788 -0.076766275 0.41424006
-0.19087633 -0.068901084 0.41463634
-0.18653895 -0.066110633 0.41780001
-0.17899296 -0.061369974 0.41520005
0.31600893 -0.065063469 0.41670659
0.32544547 -0.065333091 0.41366053
0.33512849 -0.065323144 0.41209877
0.3412005 -0.06395378 0.41280004
0.31599712 -0.055004522 0.41601005
0.32537907 -0.05512109 0.41307274
0.33478945 -0.055837441 0.41202855
0.3410728 -0.057360109 0.41221434
-0.16053554 -0.043164536 0.41364709
-0.15936114 -0.043678764 0.41400003
0.30691314 -0.042101081 0.41762501
0.31492549 -0.044988196 0.41400883
0.32364091 -0.046496939 0.41139349
-0.16031857 -0.039895866 0.41000003
-0.15751414 -0.034361325 0.41393441
0.29908562 -0.033220295 0.41891673
0.30492368 -0.034913778 0.41486505
0.31182188 -0.038666096 0.41094118
-0.15652706 -0.025145717 0.41428053
0.065900795 -0.024335481 0.41767913
0.071542569 -0.023545599 0.41689467
0.16886304 -0.020732434 0.41100001
0.17112076 -0.02068199 0.41000003
0.28960016 -0.02040874 0.41900003
0.29658586 -0.024615398 0.41712326
0.30403051 -0.025406523 0.41261163
-0.25158447 -0.013743648 0.41000003
-0.24404481 -0.012450914 0.41037205
-0.23538911 -0.012649145 0.4130491
-0.22485314 -0.012784891 0.41317236
-0.2152378 -0.012390092 0.41410422
-0.20546357 -0.011886414 0.41335297
-0.19511564 -0.010862824 0.41166672
-0.18559541 -0.010243074 0.41090003
-0.17445578 -0.010127082 0.41125003
-0.16363379 -0.012585702 0.41329312
-0.15714073 -0.016721483 0.41542593
0.06566897 -0.015092418 0.41728553
0.073712081 -0.014346487 0.41541702
0.081368931 -0.010129661 0.41500002
0.15741013 -0.011017282 0.41400003
0.1655885 -0.014391615 0.41205201
0.17126785 -0.015080206 0.41042107
0.27905506 -0.010227297 0.41900003
0.2857742 -0.013631635 0.41661176
0.29502839 -0.015063365 0.41359478
0.30241141 -0.017419519 0.41118422
-0.24158546 -0.0083568506 0.4104445
-0.23508142 -0.004855277 0.41370019
-0.22429259 -0.004699131 0.4155004
-0.21644793 -0.0082685761 0.41828579
-0.2045275 -0.0088988887 0.41810003
-0.19433224 -0.0078649903 0.41656005
-0.18487361 -0.00744052 0.41602769
-0.17501867 -0.0075418563 0.41594592
-0.16654675 -0.0082111731 0.4169524
0.066256337 -0.0054368754 0.41578004
0.074897617 -0.0047287568 0.41506717
0.08207766 -0.0044783414 0.4144516
0.14853802 -0.00040312312 0.41250002
0.1557515 -0.0045324014 0.41364595
0.16441275 -0.0049662292 0.41178882
0.17058705 -0.0084064612 0.41000003
0.27860889 -0.0036443514 0.41833338
0.28498465 -0.0047611301 0.41426882
0.29236728 -0.0053933584 0.41073334
-0.23345706 0.0049094288 0.41382563
-0.22538212 0.0019889108 0.41670591
-0.21801129 0.0020385543 0.41724998
0.058354154 0.00664831 0.41311112
0.065157883 0.0055864127 0.41449261
0.074400321 0.0043393224 0.41586518
0.082161188 0.003934585 0.41628575
0.14900395 0.005694564 0.41441178
0.15448833 0.0045317742 0.4125317
0.16196239 0.0013087165 0.41060004
0.21361244 0.0036332046 0.41425002
0.2688736 0.0090447227 0.41900003
0.27628753 0.0059655886 0.41697732
0.28376186 0.0041042701 0.4118506
0.29116252 0.0016009685 0.41012505
-0.23161612 0.01190265 0.41371435
-0.22828867 0.016944645 0.41436955
0.047874823 0.019042622 0.41500002
0.056094803 0.01616824 0.41413039
0.064668491 0.014731522 0.41524684
0.071315214 0.014844221 0.41845006
0.14813133 0.015159332 0.4129487
0.15230985 0.012647286 0.41206673
0.20772712 0.015634177 0.41217646
0.21198952 0.014794448 0.41690001
0.25745887 0.016921788 0.41853124
0.26525038 0.015137144 0.4170666
0.2748889 0.014951454 0.41298339
0.28194386 0.014785186 0.41015548
-0.22631083 0.02509506 0.41444078
-0.0052363062 0.022011105 0.41750002
0.0057923784 0.021407904 0.41900003
0.017128572 0.02471 0.41899991
0.022404471 0.025223782 0.41896155
0.03485838 0.024793267 0.41793174
0.0454842 0.023621276 0.41787505
0.055184394 0.022947939 0.41716659
0.065463744 0.023811895 0.41733319
0.074631006 0.025669824 0.41626751
0.084368862 0.025800154 0.41463247
0.090750039 0.029024467 0.41100001
0.14764123 0.021508202 0.41050005
0.15508737 0.025046375 0.4141334
0.16260689 0.02887545 0.41311112
0.20682637 0.0251109 0.41434789
0.21111841 0.022903943 0.41839999
0.2496016 0.027953118 0.41900003
0.25535214 0.025180595 0.41786647
0.26502353 0.025034385 0.41581848
0.27401406 0.024745556 0.41184509
0.28192073 0.021802019 0.41000003
-0.23095618 0.039126292 0.41033337
-0.22642045 0.035098638 0.4147391
0.016487248 0.035578717 0.41847473
0.021605082 0.035034493 0.41889998
0.069189221 0.030474506 0.41866669
0.075103104 0.035079964 0.41436917
0.084872045 0.034912791 0.41103303
0.094557397 0.035897706 0.41160637
0.103664 0.038069915 0.41367996
0.16718169 0.031930264 0.41517392
0.1744101 0.035515506 0.41448715
0.18372208 0.038743552 0.41317388
0.19628508 0.038336582 0.41153845
0.20374246 0.03510993 0.41552171
0.24905619 0.035043769 0.41900009
0.2546007 0.035302944 0.41679409
0.26373202 0.03427995 0.41300011
0.2715635 0.031793743 0.41137505
-0.23477393 0.045347445 0.4138588
-0.22860871 0.041547474 0.41730773
0.0095416103 0.041832734 0.41600001
0.016784372 0.04438068 0.41523913
0.023170164 0.04598311 0.41636002
0.075754322 0.042758968 0.41311362
0.085219368 0.044296887 0.41110691
0.095139444 0.044712365 0.41512132
0.10472701 0.042521667 0.41741186
0.18774387 0.041591592 0.41547066
0.19459508 0.043028865 0.41647366
0.20157535 0.041936181 0.41837502
0.24760728 0.046892513 0.41844735
0.2547175 0.044845041 0.41476789
0.26070705 0.041347042 0.4111819
-0.23630403 0.053570397 0.41465858
0.01879075 0.053705055 0.41299999
0.024417501 0.055223048 0.41439545
0.030615648 0.058151457 0.41783333
0.089898199 0.05054798 0.41200003
0.09453705 0.051708605 0.41600004
0.22785977 0.057648081 0.41821432
0.23544404 0.056114309 0.41616264
0.24520557 0.055094726 0.41443259
0.25152224 0.05226681 0.41196293
0.019010928 0.060443256 0.41000003
0.026854375 0.064532571 0.41205886
0.033740059 0.065886468 0.41717303
0.045113705 0.068234444 0.41652498
0.052397314 0.068498716 0.41393751
0.20632648 0.069162622 0.41872737
0.21549107 0.068506755 0.41746154
0.22532919 0.065411896 0.41664767
0.23430935 0.064512707 0.41271576
0.24264391 0.06191453 0.41091669
0.027359525 0.074833035 0.41193476
0.035016496 0.074894227 0.41735604
0.044631395 0.075021207 0.41506666
0.054674689 0.074924171 0.41333339
0.063989334 0.076158278 0.41211879
0.071126923 0.078973055 0.41200003
0.19635418 0.075775065 0.41525587
0.20470507 0.073568493 0.41384712
0.21472228 0.072782777 0.41243646
0.2249136 0.071777895 0.41148648
0.2319371 0.071039811 0.41058329
-0.004227309 0.088877015 0.4105294
0.0058926544 0.088487223 0.41091308
0.015050761 0.087080278 0.41169235
0.024482861 0.08480335 0.41475809
0.03151793 0.081556991 0.41837505
0.045876626 0.08204405 0.41689283
0.05521233 0.083291762 0.4143889
0.06449309 0.083933823 0.41415736
0.073334806 0.084053598 0.41471118
0.1884307 0.087738998 0.41619354
0.19246835 0.083800822 0.41349998
-0.27379614 0.09670791 0.41755554
-0.2666226 0.097519889 0.41387504
-0.081029154 0.097709157 0.41230002
